# .PCD v0.7 - Point Cloud Data file format
VERSION 0.7
FIELDS x y z rgb
SIZE 4 4 4 4
TYPE F F F F
COUNT 1 1 1 1
WIDTH 985
HEIGHT 1
VIEWPOINT 0 0 0 1 0 0 0
POINTS 985
DATA ascii
0.018060001 0.093740009 0.90300006 2.8758512e-39
0.019780001 0.093740009 0.90300006 3.24497e-39
0.021500001 0.093740009 0.90300006 4.4406069e-39
0.023220001 0.093740009 0.90300006 5.5455041e-39
0.024995239 0.093947627 0.90500003 5.5487355e-39
0.026807621 0.094259053 0.90800005 5.5497851e-39
0.028537145 0.094259053 0.90800005 8.4945942e-39
-0.018600002 0.098314293 0.93000007 4.3281892e-39
-0.016864764 0.098525718 0.93200004 9.1269484e-39
-0.015057144 0.098314293 0.93000007 1.4020861e-38
-0.013242858 0.097997151 0.92700005 1.3467421e-38
-0.011415238 0.097468577 0.92200005 1.3000331e-38
-0.0096380962 0.097257152 0.92000002 7.8446061e-39
-0.0078600002 0.096940003 0.91700006 2.7893519e-39
-0.0061000003 0.096728578 0.91500002 3.4325605e-39
-0.0043476191 0.096517146 0.91300005 4.1661556e-39
-0.0026085717 0.096517146 0.91300005 4.0732313e-39
-0.00086666673 0.096200004 0.91000003 3.888131e-39
0.00086476194 0.095988579 0.90800005 3.7055404e-39
0.0025942859 0.095988579 0.90800005 3.6119099e-39
0.0043238099 0.095988579 0.90800005 3.4296724e-39
0.0060333339 0.095671438 0.90500003 3.3349698e-39
0.0077571436 0.095671438 0.90500003 3.5215121e-39
0.0094809532 0.095671438 0.90500003 3.7927124e-39
0.01118 0.095460005 0.90300006 3.7041041e-39
0.0129 0.095460005 0.90300006 3.7012328e-39
0.01462 0.095460005 0.90300006 3.6126245e-39
0.016340001 0.095460005 0.90300006 3.5211562e-39
0.018060001 0.095460005 0.90300006 3.8903002e-39
0.019780001 0.095460005 0.90300006 4.2594443e-39
0.021500001 0.095460005 0.90300006 4.6275107e-39
0.023220001 0.095460005 0.90300006 4.9966506e-39
0.025078097 0.095988579 0.90800005 5.90927e-39
0.026955239 0.096517146 0.91300005 6.9230324e-39
0.032419048 0.097257152 0.92000002 9.8612119e-39
0.034245718 0.097468577 0.92200005 5.255853e-39
-0.018600002 0.10008572 0.93000007 3.97773e-39
-0.016864764 0.10030096 0.93200004 1.0615769e-38
-0.015057144 0.10008572 0.93000007 1.7145461e-38
-0.013285715 0.10008572 0.93000007 1.5770486e-38
-0.011415238 0.099224769 0.92200005 1.4379292e-38
-0.0096380962 0.099009529 0.92000002 7.8384951e-39
-0.0078600002 0.098686673 0.91700006 1.226352e-39
-0.0061000003 0.098471433 0.91500002 3.1577798e-39
-0.0043571433 0.098471433 0.91500002 5.0859567e-39
-0.0026085717 0.098256201 0.91300005 5.086307e-39
-0.00086952385 0.098256201 0.91300005 4.9933996e-39
0.00086666673 0.097933337 0.91000003 4.8100929e-39
0.0025942859 0.097718105 0.90800005 4.533506e-39
0.0043238099 0.097718105 0.90800005 4.3501896e-39
0.0060533336 0.097718105 0.90800005 4.0736083e-39
0.0077571436 0.097395241 0.90500003 4.4409517e-39
0.0094809532 0.097395241 0.90500003 4.8075762e-39
0.011204762 0.097395241 0.90500003 4.9004879e-39
0.012928572 0.097395241 0.90500003 4.9919632e-39
0.01462 0.097180009 0.90300006 4.8097272e-39
0.016340001 0.097180009 0.90300006 4.6267792e-39
0.018060001 0.097180009 0.90300006 4.9044437e-39
0.019736191 0.096964769 0.90100002 5.1795985e-39
0.021500001 0.097180009 0.90300006 4.8136984e-39
0.023168573 0.096964769 0.90100002 4.3462659e-39
0.025078097 0.097718105 0.90800005 6.2608166e-39
0.026955239 0.098256201 0.91300005 8.22022e-39
0.028757146 0.098471433 0.91500002 1.3026884e-38
0.030666668 0.099009529 0.92000002 1.7784675e-38
0.032419048 0.099009529 0.92000002 1.1058005e-38
0.034245718 0.099224769 0.92200005 4.2496324e-39
0.036119051 0.099547625 0.92500007 5.7157801e-39
0.037880953 0.099547625 0.92500007 7.1894599e-39
0.039642859 0.099547625 0.92500007 7.1909018e-39
0.041404765 0.099547625 0.92500007 7.0990677e-39
-0.016864764 0.1020762 0.93200004 1.2731294e-38
-0.015057144 0.10185715 0.93000007 1.7062995e-38
-0.013285715 0.10185715 0.93000007 1.6321859e-38
-0.011452381 0.10130953 0.92500007 1.5581399e-38
-0.0096380962 0.10076191 0.92000002 1.0972726e-38
-0.0078600002 0.10043334 0.91700006 6.4563089e-39
-0.0061133336 0.10043334 0.91700006 4.6224913e-39
-0.0043571433 0.1002143 0.91500002 2.7904407e-39
-0.0026142858 0.1002143 0.91500002 3.3400131e-39
-0.00086952385 0.099995248 0.91300005 3.9846594e-39
0.00086952385 0.099995248 0.91300005 4.4431237e-39
0.0026000002 0.09966667 0.91000003 4.8108174e-39
0.0043238099 0.099447623 0.90800005 4.7186161e-39
0.0060533336 0.099447623 0.90800005 4.626782e-39
0.0077571436 0.099119052 0.90500003 4.9019312e-39
0.0094809532 0.099119052 0.90500003 5.0856036e-39
0.011204762 0.099119052 0.90500003 5.1777978e-39
0.012928572 0.099119052 0.90500003 5.1785167e-39
0.014652382 0.099119052 0.90500003 4.8111747e-39
0.016340001 0.098900005 0.90300006 4.5367472e-39
0.018100001 0.099119052 0.90500003 3.8931827e-39
0.01982381 0.099119052 0.90500003 3.3432529e-39
0.021547621 0.099119052 0.90500003 3.794904e-39
0.02327143 0.099119052 0.90500003 4.2522752e-39
0.025133334 0.09966667 0.91000003 8.2123082e-39
0.026955239 0.099995248 0.91300005 1.2272474e-38
0.028694287 0.099995248 0.91300005 1.5315273e-38
0.030666668 0.10076191 0.92000002 1.8346139e-38
0.032419048 0.10076191 0.92000002 1.317961e-38
0.034171432 0.10076191 0.92000002 8.1017248e-39
0.036119051 0.10130953 0.92500007 7.3684463e-39
0.037880953 0.10130953 0.92500007 6.6395161e-39
0.039642859 0.10130953 0.92500007 6.9153939e-39
0.04127048 0.10098096 0.92200005 7.1909018e-39
-0.018600002 0.10362858 0.93000007 1.272298e-38
-0.016828572 0.10362858 0.93000007 1.4853216e-38
-0.015057144 0.10362858 0.93000007 1.6966148e-38
-0.013242858 0.10329429 0.92700005 1.6872518e-38
-0.011452381 0.10307144 0.92500007 1.668452e-38
-0.0096590482 0.10273715 0.92200005 1.4197765e-38
-0.007885715 0.10251429 0.92000002 1.1612723e-38
-0.0061133336 0.10218 0.91700006 5.993163e-39
-0.004366667 0.10218 0.91700006 3.9838775e-40
-0.0026142858 0.10195715 0.91500002 1.6826666e-39
-0.00087142864 0.10195715 0.91500002 2.9705117e-39
0.00086952385 0.1017343 0.91300005 4.0743285e-39
0.0026085717 0.1017343 0.91300005 5.0852393e-39
0.0043333336 0.10140001 0.91000003 5.1785125e-39
0.0060533336 0.10117715 0.90800005 5.1781552e-39
0.0077828579 0.10117715 0.90800005 5.2703508e-39
0.0095123816 0.10117715 0.90800005 5.3614702e-39
0.011204762 0.10084286 0.90500003 5.3625464e-39
0.012971429 0.10117715 0.90800005 5.361466e-39
0.014652382 0.10084286 0.90500003 4.9026417e-39
0.016376192 0.10084286 0.90500003 4.3494777e-39
0.018100001 0.10084286 0.90500003 2.9719467e-39
0.019889524 0.10117715 0.90800005 1.4979278e-39
0.02161905 0.10117715 0.90800005 2.7703643e-39
0.023400001 0.10140001 0.91000003 4.0790257e-39
0.025216192 0.1017343 0.91300005 1.0246719e-38
0.027014287 0.10195715 0.91500002 1.6320434e-38
0.028820002 0.10218 0.91700006 1.7615118e-38
0.030666668 0.10251429 0.92000002 1.8803906e-38
0.032489527 0.10273715 0.92200005 1.5395898e-38
0.034171432 0.10251429 0.92000002 1.1883126e-38
0.036001906 0.10273715 0.92200005 8.924954e-39
0.037758097 0.10273715 0.92200005 5.9927019e-39
0.039514288 0.10273715 0.92200005 6.6402405e-39
0.04127048 0.10273715 0.92200005 7.1912577e-39
0.043026671 0.10273715 0.92200005 7.3749315e-39
-0.01864 0.10562667 0.93200004 1.4946092e-38
-0.016864764 0.10562667 0.93200004 1.5862707e-38
-0.015057144 0.1054 0.93000007 1.6687783e-38
-0.013242858 0.10506 0.92700005 1.6596297e-38
-0.011452381 0.10483334 0.92500007 1.6504455e-38
-0.0096590482 0.10449334 0.92200005 1.5398119e-38
-0.007885715 0.10426667 0.92000002 1.4293883e-38
-0.0061133336 0.10392667 0.91700006 1.0973399e-38
-0.004366667 0.10392667 0.91700006 7.6580316e-39
-0.0026142858 0.1037 0.91500002 6.9219492e-39
-0.00087142864 0.1037 0.91500002 6.1804381e-39
0.00086952385 0.10347334 0.91300005 4.6195822e-39
0.0026085717 0.10347334 0.91300005 3.1548918e-39
0.0043333336 0.10313334 0.91000003 3.1545456e-39
0.0060533336 0.10290667 0.90800005 3.1566994e-39
0.0077828579 0.10290667 0.90800005 2.9705187e-39
0.0095123816 0.10290667 0.90800005 2.880837e-39
0.011241905 0.10290667 0.90800005 3.2463853e-39
0.012971429 0.10290667 0.90800005 3.6137175e-39
0.014700953 0.10290667 0.90800005 4.1604145e-39
0.016376192 0.10256667 0.90500003 4.7103513e-39
0.01816 0.10290667 0.90800005 5.7248465e-39
0.019889524 0.10290667 0.90800005 6.7318266e-39
0.021666668 0.10313334 0.91000003 8.5811104e-39
0.023477145 0.10347334 0.91300005 1.0433631e-38
0.025216192 0.10347334 0.91300005 1.374691e-38
0.027014287 0.1037 0.91500002 1.697407e-38
0.028820002 0.10392667 0.91700006 1.7705887e-38
0.030666668 0.10426667 0.92000002 1.8439817e-38
0.032419048 0.10426667 0.92000002 1.6410072e-38
0.034171432 0.10426667 0.92000002 1.4283407e-38
0.035923813 0.10426667 0.92000002 9.6725201e-39
0.037758097 0.10449334 0.92200005 5.0721764e-39
0.039514288 0.10449334 0.92200005 6.1785463e-39
0.041404765 0.10483334 0.92500007 7.1908948e-39
0.043026671 0.10449334 0.92200005 7.2827359e-39
-0.020524763 0.10797811 0.93700004 1.0799847e-38
-0.018700002 0.10774763 0.93500006 1.714693e-38
-0.016864764 0.10740191 0.93200004 1.6780336e-38
-0.015057144 0.10717144 0.93000007 1.6412271e-38
-0.013242858 0.10682572 0.92700005 1.6411548e-38
-0.011452381 0.10659525 0.92500007 1.6320429e-38
-0.0096590482 0.10624953 0.92200005 1.6596651e-38
-0.007885715 0.10601906 0.92000002 1.6869261e-38
-0.0061333338 0.10601906 0.92000002 1.5948727e-38
-0.004366667 0.10567334 0.91700006 1.492957e-38
-0.0026200002 0.10567334 0.91700006 1.2166255e-38
-0.00087142864 0.10544287 0.91500002 9.3121594e-39
0.00086952385 0.10521239 0.91300005 5.2527239e-39
0.0026085717 0.10521239 0.91300005 1.2252519e-39
0.0043333336 0.10486668 0.91000003 1.2202479e-39
0.0060533336 0.1046362 0.90800005 1.1327172e-39
0.0077828579 0.1046362 0.90800005 7.574831e-40
0.0095123816 0.1046362 0.90800005 3.0548587e-40
0.011241905 0.1046362 0.90800005 1.1277076e-39
0.012971429 0.1046362 0.90800005 1.8666809e-39
0.014700953 0.1046362 0.90800005 3.4145958e-39
0.016430477 0.1046362 0.90800005 4.9940946e-39
0.01816 0.1046362 0.90800005 8.4856371e-39
0.019933335 0.10486668 0.91000003 1.1895781e-38
0.021738097 0.10521239 0.91300005 1.4388648e-38
0.023477145 0.10521239 0.91300005 1.6777818e-38
0.025271431 0.10544287 0.91500002 1.7240956e-38
0.027014287 0.10544287 0.91500002 1.7611174e-38
0.028820002 0.10567334 0.91700006 1.788597e-38
0.030566668 0.10567334 0.91700006 1.8070698e-38
0.032419048 0.10601906 0.92000002 1.7428906e-38
0.034171432 0.10601906 0.92000002 1.6677634e-38
0.035923813 0.10601906 0.92000002 1.0409774e-38
0.037758097 0.10624953 0.92200005 4.1545655e-39
0.039514288 0.10624953 0.92200005 5.7193632e-39
0.041404765 0.10659525 0.92500007 7.1901745e-39
0.043166671 0.10659525 0.92500007 7.0990649e-39
0.044782858 0.10624953 0.92200005 7.0072322e-39
-0.020480953 0.10952858 0.93500006 1.2362161e-38
-0.018700002 0.10952858 0.93500006 1.7061566e-38
-0.016828572 0.10894287 0.93000007 1.668921e-38
-0.015057144 0.10894287 0.93000007 1.6319714e-38
-0.013242858 0.10859144 0.92700005 1.632007e-38
-0.011452381 0.10835715 0.92500007 1.6320431e-38
-0.0096590482 0.10800572 0.92200005 1.6504462e-38
-0.007885715 0.10777143 0.92000002 1.6688857e-38
-0.0061333338 0.10777143 0.92000002 1.6320443e-38
-0.0043809526 0.10777143 0.92000002 1.5954861e-38
-0.0026200002 0.10742 0.91700006 1.4569042e-38
-0.00087142864 0.10718572 0.91500002 1.3190404e-38
0.00086952385 0.10695144 0.91300005 1.1068112e-38
0.0026085717 0.10695144 0.91300005 8.8648005e-39
0.0043333336 0.10660001 0.91000003 8.6768471e-39
0.0060533336 0.10636572 0.90800005 8.5803467e-39
0.0077828579 0.10636572 0.90800005 8.3055563e-39
0.0095123816 0.10636572 0.90800005 8.1190266e-39
0.011241905 0.10636572 0.90800005 8.4917608e-39
0.012971429 0.10636572 0.90800005 8.9537885e-39
0.014700953 0.10636572 0.90800005 9.8731987e-39
0.016430477 0.10636572 0.90800005 1.0804828e-38
0.01816 0.10636572 0.90800005 1.254755e-38
0.019933335 0.10660001 0.91000003 1.4302878e-38
0.021738097 0.10695144 0.91300005 1.5402801e-38
0.023477145 0.10695144 0.91300005 1.6598456e-38
0.025216192 0.10695144 0.91300005 1.6965439e-38
0.027014287 0.10718572 0.91500002 1.7333153e-38
0.028757146 0.10718572 0.91500002 1.7517911e-38
0.030566668 0.10742 0.91700006 1.7701938e-38
0.032419048 0.10777143 0.92000002 1.7610816e-38
0.034171432 0.10777143 0.92000002 1.7425278e-38
0.035923813 0.10777143 0.92000002 1.197857e-38
0.037758097 0.10800572 0.92200005 6.6212361e-39
0.039642859 0.10835715 0.92500007 6.6312554e-39
0.041404765 0.10835715 0.92500007 6.6395175e-39
0.043166671 0.10835715 0.92500007 6.9153925e-39
-0.020524763 0.11154763 0.93700004 1.3931984e-38
-0.018700002 0.11130953 0.93500006 1.6872516e-38
-0.016864764 0.11095238 0.93200004 1.6503744e-38
-0.015057144 0.11071429 0.93000007 1.6136402e-38
-0.013242858 0.11035715 0.92700005 1.6228596e-38
-0.011452381 0.11011905 0.92500007 1.6228597e-38
-0.0096904766 0.11011905 0.92500007 1.6412268e-38
-0.0079028578 0.10976191 0.92200005 1.6504827e-38
-0.0061333338 0.10952382 0.92000002 1.6688862e-38
-0.004366667 0.10916667 0.91700006 1.6872874e-38
-0.0026142858 0.10892858 0.91500002 1.696505e-38
-0.00086952385 0.10869049 0.91300005 1.7055077e-38
0.00086666673 0.10833334 0.91000003 1.6781351e-38
0.0026000002 0.10833334 0.91000003 1.6499756e-38
0.0043238099 0.10809524 0.90800005 1.6224978e-38
0.0060533336 0.10809524 0.90800005 1.5945165e-38
0.0077828579 0.10809524 0.90800005 1.5948751e-38
0.0095123816 0.10809524 0.90800005 1.5852615e-38
0.011241905 0.10809524 0.90800005 1.5950553e-38
0.013000001 0.10833334 0.91000003 1.6039507e-38
0.014733334 0.10833334 0.91000003 1.6319308e-38
0.016466668 0.10833334 0.91000003 1.6594814e-38
0.018200001 0.10833334 0.91000003 1.6597325e-38
0.01999905 0.10869049 0.91300005 1.6596992e-38
0.021738097 0.10869049 0.91300005 1.6504465e-38
0.023477145 0.10869049 0.91300005 1.6413347e-38
0.025271431 0.10892858 0.91500002 1.6688496e-38
0.027014287 0.10892858 0.91500002 1.6965445e-38
0.028757146 0.10892858 0.91500002 1.7150199e-38
0.030566668 0.10916667 0.91700006 1.7334589e-38
0.032313336 0.10916667 0.91700006 1.7795203e-38
0.034060001 0.10916667 0.91700006 1.8156741e-38
0.035923813 0.10952382 0.92000002 1.364203e-38
0.037676193 0.10952382 0.92000002 9.0268999e-39
0.039428573 0.10952382 0.92000002 7.5445783e-39
0.041494288 0.11035715 0.92700005 6.0845528e-39
-0.020524763 0.11333239 0.93700004 1.4573406e-38
-0.018700002 0.11309049 0.93500006 1.6687056e-38
-0.016828572 0.11248572 0.93000007 1.6411188e-38
-0.015057144 0.11248572 0.93000007 1.6135684e-38
-0.013242858 0.11212286 0.92700005 1.622824e-38
-0.011452381 0.11188096 0.92500007 1.6320434e-38
-0.0096904766 0.11188096 0.92500007 1.6504462e-38
-0.0079028578 0.1115181 0.92200005 1.6596662e-38
-0.0061133336 0.11091334 0.91700006 1.6688862e-38
-0.0043571433 0.11067144 0.91500002 1.687289e-38
-0.0026142858 0.11067144 0.91500002 1.6873607e-38
-0.00086952385 0.11042953 0.91300005 1.6966878e-38
0.00086666673 0.11006667 0.91000003 1.6873609e-38
0.0025942859 0.10982477 0.90800005 1.6781055e-38
0.0043238099 0.10982477 0.90800005 1.6596665e-38
0.0060533336 0.10982477 0.90800005 1.6506622e-38
0.0077828579 0.10982477 0.90800005 1.6412274e-38
0.0095123816 0.10982477 0.90800005 1.6321153e-38
0.011241905 0.10982477 0.90800005 1.6320791e-38
0.013000001 0.11006667 0.91000003 1.6322584e-38
0.014733334 0.11006667 0.91000003 1.6320787e-38
0.016466668 0.11006667 0.91000003 1.6412623e-38
0.018200001 0.11006667 0.91000003 1.6412264e-38
0.01999905 0.11042953 0.91300005 1.6411548e-38
0.021738097 0.11042953 0.91300005 1.6412267e-38
0.023477145 0.11042953 0.91300005 1.6504462e-38
0.025271431 0.11067144 0.91500002 1.6688852e-38
0.027014287 0.11067144 0.91500002 1.6873244e-38
0.028757146 0.11067144 0.91500002 1.7057635e-38
0.030566668 0.11091334 0.91700006 1.7149835e-38
0.032313336 0.11091334 0.91700006 1.7702288e-38
0.034060001 0.11091334 0.91700006 1.8162847e-38
0.035806671 0.11091334 0.91700006 1.4841291e-38
0.037553336 0.11091334 0.91700006 1.1513278e-38
0.039428573 0.11127619 0.92000002 8.5630098e-39
-0.022380954 0.11548572 0.94000006 1.4015185e-38
-0.020590477 0.11548572 0.94000006 1.5218408e-38
-0.018740002 0.11511715 0.93700004 1.6411191e-38
-0.016864764 0.11450286 0.93200004 1.6318635e-38
-0.015057144 0.11425715 0.93000007 1.6135683e-38
-0.013242858 0.11388858 0.92700005 1.6319715e-38
-0.011452381 0.11364286 0.92500007 1.6412268e-38
-0.0096904766 0.11364286 0.92500007 1.6596298e-38
-0.0079028578 0.11327429 0.92200005 1.6688495e-38
-0.0061133336 0.11266001 0.91700006 1.6780692e-38
-0.0043571433 0.11241429 0.91500002 1.6781051e-38
-0.0026142858 0.11241429 0.91500002 1.6872886e-38
-0.00086952385 0.11216858 0.91300005 1.6873604e-38
0.00086666673 0.11180001 0.91000003 1.6965441e-38
0.0026000002 0.11180001 0.91000003 1.7056917e-38
0.0043238099 0.11155429 0.90800005 1.7057276e-38
0.0060533336 0.11155429 0.90800005 1.6965079e-38
0.0077828579 0.11155429 0.90800005 1.6872882e-38
0.0095333336 0.11180001 0.91000003 1.6688852e-38
0.011266667 0.11180001 0.91000003 1.6688854e-38
0.013000001 0.11180001 0.91000003 1.6596657e-38
0.014781905 0.11216858 0.91300005 1.6412265e-38
0.016466668 0.11180001 0.91000003 1.6136759e-38
0.01826 0.11216858 0.91300005 1.6227877e-38
0.01999905 0.11216858 0.91300005 1.6228236e-38
0.021738097 0.11216858 0.91300005 1.6411908e-38
0.023528572 0.11241429 0.91500002 1.650446e-38
0.025271431 0.11241429 0.91500002 1.6688848e-38
0.027014287 0.11241429 0.91500002 1.6781047e-38
0.028757146 0.11241429 0.91500002 1.6873245e-38
0.030566668 0.11266001 0.91700006 1.6965801e-38
0.032313336 0.11266001 0.91700006 1.7609728e-38
0.034171432 0.11302858 0.92000002 1.8161071e-38
0.035923813 0.11302858 0.92000002 1.604703e-38
0.037676193 0.11302858 0.92000002 1.3909989e-38
0.039428573 0.11302858 0.92000002 9.4756265e-39
-0.024094287 0.11690191 0.93700004 9.4083193e-39
-0.022261906 0.11665239 0.93500006 1.4573738e-38
-0.020590477 0.1172762 0.94000006 1.5401004e-38
-0.018740002 0.11690191 0.93700004 1.6226802e-38
-0.016864764 0.1162781 0.93200004 1.6135321e-38
-0.015057144 0.11602858 0.93000007 1.6135681e-38
-0.013242858 0.11565429 0.92700005 1.6227877e-38
-0.011452381 0.11540477 0.92500007 1.6412267e-38
-0.0096904766 0.11540477 0.92500007 1.6504462e-38
-0.0079028578 0.11503048 0.92200005 1.6688492e-38
-0.0061133336 0.11440668 0.91700006 1.668885e-38
-0.0043571433 0.11415715 0.91500002 1.6780688e-38
-0.0026142858 0.11415715 0.91500002 1.6781048e-38
-0.00086952385 0.11390763 0.91300005 1.6872883e-38
0.00086666673 0.11353334 0.91000003 1.6873241e-38
0.0026000002 0.11353334 0.91000003 1.6965079e-38
0.0043333336 0.11353334 0.91000003 1.6873245e-38
0.0060666669 0.11353334 0.91000003 1.6872882e-38
0.0078000007 0.11353334 0.91000003 1.6781041e-38
0.0095333336 0.11353334 0.91000003 1.6780686e-38
0.011266667 0.11353334 0.91000003 1.6596661e-38
0.013042858 0.11390763 0.91300005 1.6504105e-38
0.014781905 0.11390763 0.91300005 1.6411908e-38
0.016520953 0.11390763 0.91300005 1.6228237e-38
0.01826 0.11390763 0.91300005 1.6228236e-38
0.020042859 0.11415715 0.91500002 1.632043e-38
0.021785716 0.11415715 0.91500002 1.6411907e-38
0.023528572 0.11415715 0.91500002 1.6503741e-38
0.025271431 0.11415715 0.91500002 1.6596291e-38
0.027014287 0.11415715 0.91500002 1.6688132e-38
0.028757146 0.11415715 0.91500002 1.6780689e-38
0.030566668 0.11440668 0.91700006 1.6872526e-38
0.032313336 0.11440668 0.91700006 1.7241303e-38
0.034171432 0.11478096 0.92000002 1.7518596e-38
0.036001906 0.11503048 0.92200005 1.6503376e-38
0.037758097 0.11503048 0.92200005 1.5572735e-38
0.039642859 0.11540477 0.92500007 1.0224302e-38
0.041404765 0.11540477 0.92500007 4.9792969e-39
-0.024300002 0.11970001 0.94500005 9.688132e-39
-0.022500001 0.11970001 0.94500005 1.5121877e-38
-0.020634288 0.11932001 0.94200003 1.5585027e-38
-0.018800002 0.11906668 0.94000006 1.6043126e-38
-0.016919049 0.11843334 0.93500006 1.6043124e-38
-0.015089525 0.11805334 0.93200004 1.6043844e-38
-0.013285715 0.1178 0.93000007 1.6227877e-38
-0.011452381 0.11716668 0.92500007 1.6320073e-38
-0.0096904766 0.11716668 0.92500007 1.6504105e-38
-0.0079028578 0.11678667 0.92200005 1.6596299e-38
-0.0061133336 0.11615334 0.91700006 1.6688494e-38
-0.0043333336 0.11526667 0.91000003 1.6688854e-38
-0.0026000002 0.11526667 0.91000003 1.6780692e-38
-0.00086666673 0.11526667 0.91000003 1.6781048e-38
0.00086666673 0.11526667 0.91000003 1.6781045e-38
0.0026000002 0.11526667 0.91000003 1.6781405e-38
0.0043333336 0.11526667 0.91000003 1.6781049e-38
0.0060666669 0.11526667 0.91000003 1.6689211e-38
0.0078257145 0.11564668 0.91300005 1.6780685e-38
0.0095647629 0.11564668 0.91300005 1.6780326e-38
0.011266667 0.11526667 0.91000003 1.6596298e-38
0.013042858 0.11564668 0.91300005 1.6412267e-38
0.014781905 0.11564668 0.91300005 1.6411549e-38
0.016520953 0.11564668 0.91300005 1.6320073e-38
0.018300001 0.11590001 0.91500002 1.6320073e-38
0.020042859 0.11590001 0.91500002 1.6320073e-38
0.021785716 0.11590001 0.91500002 1.641191e-38
0.023528572 0.11590001 0.91500002 1.6411905e-38
0.025271431 0.11590001 0.91500002 1.6503738e-38
0.027014287 0.11590001 0.91500002 1.65041e-38
0.028757146 0.11590001 0.91500002 1.6688133e-38
0.030500002 0.11590001 0.91500002 1.6779969e-38
0.032313336 0.11615334 0.91700006 1.6872523e-38
0.034171432 0.11653334 0.92000002 1.6873955e-38
0.036001906 0.11678667 0.92200005 1.70587e-38
0.037758097 0.11678667 0.92200005 1.7136464e-38
0.039642859 0.11716668 0.92500007 1.1053716e-38
0.041404765 0.11716668 0.92500007 4.8906984e-39
0.043166671 0.11716668 0.92500007 5.9959599e-39
-0.026238097 0.12214287 0.95000005 4.4247456e-39
-0.024377145 0.12188572 0.94800007 9.9639986e-39
-0.02257143 0.12188572 0.94800007 1.5589302e-38
-0.020700002 0.12150001 0.94500005 1.5677213e-38
-0.018800002 0.12085715 0.94000006 1.576618e-38
-0.016919049 0.12021429 0.93500006 1.5859092e-38
-0.015089525 0.11982858 0.93200004 1.6043484e-38
-0.013285715 0.11957144 0.93000007 1.613604e-38
-0.011452381 0.11892858 0.92500007 1.6228237e-38
-0.0096590482 0.11854286 0.92200005 1.641227e-38
-0.0079028578 0.11854286 0.92200005 1.6504107e-38
-0.0061133336 0.11790001 0.91700006 1.659666e-38
-0.0043333336 0.11700001 0.91000003 1.6688857e-38
-0.0026085717 0.11738572 0.91300005 1.6781054e-38
-0.00086952385 0.11738572 0.91300005 1.6872885e-38
0.00086666673 0.11700001 0.91000003 1.6873238e-38
0.0026000002 0.11700001 0.91000003 1.6873239e-38
0.0043476191 0.11738572 0.91300005 1.6781047e-38
0.0060866671 0.11738572 0.91300005 1.6780688e-38
0.0078257145 0.11738572 0.91300005 1.6688492e-38
0.0095857149 0.11764286 0.91500002 1.6687773e-38
0.01130381 0.11738572 0.91300005 1.65041e-38
0.013042858 0.11738572 0.91300005 1.6411907e-38
0.014781905 0.11738572 0.91300005 1.6411907e-38
0.016520953 0.11738572 0.91300005 1.6320073e-38
0.018300001 0.11764286 0.91500002 1.6319714e-38
0.020042859 0.11764286 0.91500002 1.6319717e-38
0.021785716 0.11764286 0.91500002 1.6319718e-38
0.023580002 0.11790001 0.91700006 1.6319712e-38
0.025326669 0.11790001 0.91700006 1.6411542e-38
0.027014287 0.11764286 0.91500002 1.6503381e-38
0.028757146 0.11764286 0.91500002 1.6595576e-38
0.030566668 0.11790001 0.91700006 1.6687054e-38
0.032313336 0.11790001 0.91700006 1.6688131e-38
0.034245718 0.11854286 0.92200005 1.6688491e-38
0.036119051 0.11892858 0.92500007 1.6964716e-38
0.037880953 0.11892858 0.92500007 1.7238358e-38
0.039642859 0.11892858 0.92500007 1.1519014e-38
0.041404765 0.11892858 0.92500007 5.7990187e-39
-0.026238097 0.12395239 0.95000005 4.5266256e-39
-0.024428573 0.12395239 0.95000005 1.0245245e-38
-0.02261905 0.12395239 0.95000005 1.5950545e-38
-0.020765716 0.12369144 0.94800007 1.5768328e-38
-0.018900001 0.12330001 0.94500005 1.5491031e-38
-0.016864764 0.12160382 0.93200004 1.5766899e-38
-0.015089525 0.12160382 0.93200004 1.595129e-38
-0.013242858 0.12095144 0.92700005 1.6043846e-38
-0.011452381 0.12069049 0.92500007 1.6136043e-38
-0.0096590482 0.12029906 0.92200005 1.6320074e-38
-0.007885715 0.1200381 0.92000002 1.6412271e-38
-0.0061133336 0.11964668 0.91700006 1.6596302e-38
-0.0043476191 0.11912477 0.91300005 1.6688498e-38
-0.0026085717 0.11912477 0.91300005 1.6872889e-38
-0.00086952385 0.11912477 0.91300005 1.696472e-38
0.00086952385 0.11912477 0.91300005 1.6965076e-38
0.0026085717 0.11912477 0.91300005 1.6872883e-38
0.0043571433 0.11938572 0.91500002 1.6872885e-38
0.0061000003 0.11938572 0.91500002 1.6780689e-38
0.0078428574 0.11938572 0.91500002 1.6688135e-38
0.0096066669 0.11964668 0.91700006 1.6504102e-38
0.011328572 0.11938572 0.91500002 1.6503741e-38
0.013071429 0.11938572 0.91500002 1.6411547e-38
0.014846668 0.11964668 0.91700006 1.6411548e-38
0.016593335 0.11964668 0.91700006 1.6319711e-38
0.018340001 0.11964668 0.91700006 1.6319352e-38
0.020152383 0.1200381 0.92000002 1.6227518e-38
0.021833334 0.11964668 0.91700006 1.6227518e-38
0.023657145 0.1200381 0.92000002 1.6227515e-38
0.025409525 0.1200381 0.92000002 1.6319707e-38
0.027073335 0.11964668 0.91700006 1.6411544e-38
0.028820002 0.11964668 0.91700006 1.6503381e-38
0.030566668 0.11964668 0.91700006 1.6595216e-38
0.032313336 0.11964668 0.91700006 1.6595576e-38
0.034245718 0.12029906 0.92200005 1.650446e-38
0.036119051 0.12069049 0.92500007 1.6965434e-38
0.037880953 0.12069049 0.92500007 1.7326969e-38
0.039728574 0.12095144 0.92700005 1.1985376e-38
0.041494288 0.12095144 0.92700005 6.6355812e-39
-0.024428573 0.12576191 0.95000005 1.0241297e-38
-0.02261905 0.12576191 0.95000005 1.6046683e-38
-0.020809526 0.12576191 0.95000005 1.5767967e-38
-0.018960001 0.12549715 0.94800007 1.5489594e-38
-0.017100001 0.1251 0.94500005 1.5674346e-38
-0.015089525 0.12337906 0.93200004 1.5858737e-38
-0.013285715 0.1231143 0.93000007 1.5951652e-38
-0.011452381 0.12245239 0.92500007 1.6135683e-38
-0.0096590482 0.12205525 0.92200005 1.6227878e-38
-0.0079028578 0.12205525 0.92200005 1.6411912e-38
-0.0061133336 0.12139334 0.91700006 1.6504109e-38
-0.0043476191 0.12086382 0.91300005 1.6687782e-38
-0.0026085717 0.12086382 0.91300005 1.6688499e-38
-0.00086952385 0.12086382 0.91300005 1.6780692e-38
0.00086952385 0.12086382 0.91300005 1.6781049e-38
0.0026142858 0.12112858 0.91500002 1.6780692e-38
0.0043571433 0.12112858 0.91500002 1.6688858e-38
0.0061000003 0.12112858 0.91500002 1.6689214e-38
0.0078428574 0.12112858 0.91500002 1.6596299e-38
0.0096066669 0.12139334 0.91700006 1.6503385e-38
0.011328572 0.12112858 0.91500002 1.6411547e-38
0.013071429 0.12112858 0.91500002 1.6411188e-38
0.014846668 0.12139334 0.91700006 1.6319711e-38
0.016593335 0.12139334 0.91700006 1.6227515e-38
0.018340001 0.12139334 0.91700006 1.6227514e-38
0.020086668 0.12139334 0.91700006 1.6227155e-38
0.021833334 0.12139334 0.91700006 1.6227154e-38
0.023657145 0.12179048 0.92000002 1.6227154e-38
0.025409525 0.12179048 0.92000002 1.6227153e-38
0.027073335 0.12139334 0.91700006 1.6318989e-38
0.028820002 0.12139334 0.91700006 1.6411185e-38
0.030566668 0.12139334 0.91700006 1.6503021e-38
0.032313336 0.12139334 0.91700006 1.6411185e-38
0.034245718 0.12205525 0.92200005 1.6411188e-38
0.036119051 0.12245239 0.92500007 1.6780685e-38
0.037880953 0.12245239 0.92500007 1.7241595e-38
0.039728574 0.12271715 0.92700005 1.2534962e-38
0.041494288 0.12271715 0.92700005 7.8204744e-39
-0.024505716 0.12797429 0.95300007 1.0338169e-38
-0.022690477 0.12797429 0.95300007 1.6042024e-38
-0.020809526 0.12757143 0.95000005 1.5766888e-38
-0.018960001 0.12730287 0.94800007 1.5398472e-38
-0.017100001 0.1269 0.94500005 1.5582147e-38
-0.015089525 0.12515429 0.93200004 1.5766539e-38
-0.013285715 0.12488572 0.93000007 1.595129e-38
-0.011415238 0.12381144 0.92200005 1.6043844e-38
-0.0096590482 0.12381144 0.92200005 1.6227877e-38
-0.0079028578 0.12381144 0.92200005 1.6319715e-38
-0.0061133336 0.12314001 0.91700006 1.6503748e-38
-0.0043476191 0.12260287 0.91300005 1.6595942e-38
-0.0026085717 0.12260287 0.91300005 1.6596302e-38
-0.00086952385 0.12260287 0.91300005 1.659666e-38
0.00087142864 0.12287144 0.91500002 1.6597017e-38
0.0026142858 0.12287144 0.91500002 1.659666e-38
0.0043571433 0.12287144 0.91500002 1.659666e-38
0.0061000003 0.12287144 0.91500002 1.6596299e-38
0.0078428574 0.12287144 0.91500002 1.6595939e-38
0.0096066669 0.12314001 0.91700006 1.6503385e-38
0.011328572 0.12287144 0.91500002 1.6411189e-38
0.013071429 0.12287144 0.91500002 1.6319352e-38
0.014846668 0.12314001 0.91700006 1.6227876e-38
0.016593335 0.12314001 0.91700006 1.613568e-38
0.018340001 0.12314001 0.91700006 1.6135679e-38
0.020086668 0.12314001 0.91700006 1.6135317e-38
0.021833334 0.12314001 0.91700006 1.6135316e-38
0.023657145 0.12354287 0.92000002 1.6134957e-38
0.025409525 0.12354287 0.92000002 1.6226792e-38
0.027161907 0.12354287 0.92000002 1.6226794e-38
0.028914288 0.12354287 0.92000002 1.6318631e-38
0.030666668 0.12354287 0.92000002 1.6410465e-38
0.032419048 0.12354287 0.92000002 1.6318629e-38
0.034245718 0.12381144 0.92200005 1.6227154e-38
0.036119051 0.12421429 0.92500007 1.6688128e-38
0.037880953 0.12421429 0.92500007 1.7145097e-38
0.039728574 0.12448286 0.92700005 1.3092441e-38
0.041494288 0.12448286 0.92700005 9.027253e-39
-0.022690477 0.12978953 0.95300007 1.5862664e-38
-0.020809526 0.12938096 0.95000005 1.5583931e-38
-0.019000001 0.12938096 0.95000005 1.5305558e-38
-0.017154288 0.12910858 0.94800007 1.5489948e-38
-0.015138096 0.1273381 0.93500006 1.5673982e-38
-0.013285715 0.12665716 0.93000007 1.5766897e-38
-0.011415238 0.12556763 0.92200005 1.5951647e-38
-0.0096590482 0.12556763 0.92200005 1.613568e-38
-0.0079028578 0.12556763 0.92200005 1.6319354e-38
-0.0061133336 0.12488668 0.91700006 1.6411908e-38
-0.0043333336 0.12393335 0.91000003 1.6595939e-38
-0.0026000002 0.12393335 0.91000003 1.6595939e-38
-0.00086666673 0.12393335 0.91000003 1.6595939e-38
0.00086952385 0.12434191 0.91300005 1.6596297e-38
0.0026085717 0.12434191 0.91300005 1.6596297e-38
0.0043571433 0.12461429 0.91500002 1.6595938e-38
0.0061000003 0.12461429 0.91500002 1.6595579e-38
0.0078428574 0.12461429 0.91500002 1.6503383e-38
0.0096066669 0.12488668 0.91700006 1.6502666e-38
0.011353334 0.12488668 0.91700006 1.6410831e-38
0.013100001 0.12488668 0.91700006 1.6318994e-38
0.014846668 0.12488668 0.91700006 1.6227157e-38
0.016593335 0.12488668 0.91700006 1.6134961e-38
0.018340001 0.12488668 0.91700006 1.613496e-38
0.020086668 0.12488668 0.91700006 1.6134957e-38
0.021833334 0.12488668 0.91700006 1.6134595e-38
0.023657145 0.12529525 0.92000002 1.6134238e-38
0.025409525 0.12529525 0.92000002 1.6134597e-38
0.027161907 0.12529525 0.92000002 1.6226434e-38
0.028914288 0.12529525 0.92000002 1.6226434e-38
0.030666668 0.12529525 0.92000002 1.6318268e-38
0.032419048 0.12529525 0.92000002 1.6226431e-38
0.034245718 0.12556763 0.92200005 1.6133879e-38
0.036197145 0.12624858 0.92700005 1.6504093e-38
0.037962861 0.12624858 0.92700005 1.6966091e-38
0.039728574 0.12624858 0.92700005 1.3273608e-38
0.041494288 0.12624858 0.92700005 9.484641e-39
-0.022690477 0.13160478 0.95300007 1.56693e-38
-0.020809526 0.13119048 0.95000005 1.5399906e-38
-0.019000001 0.13119048 0.95000005 1.5122604e-38
-0.017154288 0.1309143 0.94800007 1.5305915e-38
-0.015138096 0.12911905 0.93500006 1.5489948e-38
-0.013314286 0.12870477 0.93200004 1.5674699e-38
-0.011415238 0.12732382 0.92200005 1.5858733e-38
-0.0096590482 0.12732382 0.92200005 1.6043484e-38
-0.0079028578 0.12732382 0.92200005 1.6227514e-38
-0.0061133336 0.12663335 0.91700006 1.6411545e-38
-0.0043333336 0.12566668 0.91000003 1.6503741e-38
-0.0026000002 0.12566668 0.91000003 1.6503742e-38
-0.00086666673 0.12566668 0.91000003 1.6503742e-38
0.00086952385 0.12608096 0.91300005 1.6504102e-38
0.0026085717 0.12608096 0.91300005 1.6503742e-38
0.0043476191 0.12608096 0.91300005 1.6503742e-38
0.0061000003 0.12635715 0.91500002 1.6503382e-38
0.0078428574 0.12635715 0.91500002 1.6503022e-38
0.0096066669 0.12663335 0.91700006 1.6410829e-38
0.011328572 0.12635715 0.91500002 1.6318994e-38
0.013071429 0.12635715 0.91500002 1.6226798e-38
0.014846668 0.12663335 0.91700006 1.6226438e-38
0.016593335 0.12663335 0.91700006 1.6134601e-38
0.018340001 0.12663335 0.91700006 1.61346e-38
0.020086668 0.12663335 0.91700006 1.6042403e-38
0.021833334 0.12663335 0.91700006 1.6042041e-38
0.023657145 0.12704763 0.92000002 1.6042042e-38
0.025464764 0.12732382 0.92200005 1.6133879e-38
0.027220953 0.12732382 0.92200005 1.6133878e-38
0.028977145 0.12732382 0.92200005 1.6134237e-38
0.030666668 0.12704763 0.92000002 1.6134235e-38
0.032419048 0.12704763 0.92000002 1.6042398e-38
0.034357145 0.1277381 0.92500007 1.5950924e-38
0.036197145 0.1280143 0.92700005 1.641154e-38
0.037962861 0.1280143 0.92700005 1.6776686e-38
0.039728574 0.1280143 0.92700005 1.3366891e-38
0.041494288 0.1280143 0.92700005 9.9506414e-39
-0.022690477 0.13342001 0.95300007 1.37368e-38
-0.02087524 0.13342001 0.95300007 1.4569443e-38
-0.019060001 0.13342001 0.95300007 1.5397035e-38
-0.017154288 0.13272001 0.94800007 1.5397388e-38
-0.015300001 0.1323 0.94500005 1.5489226e-38
-0.013314286 0.13048001 0.93200004 1.5581423e-38
-0.011415238 0.12908001 0.92200005 1.5765458e-38
-0.0096590482 0.12908001 0.92200005 1.595057e-38
-0.0079028578 0.12908001 0.92200005 1.6135676e-38
-0.0061133336 0.12838002 0.91700006 1.6319345e-38
-0.0043476191 0.12782001 0.91300005 1.6503378e-38
-0.0026085717 0.12782001 0.91300005 1.6503381e-38
-0.00086952385 0.12782001 0.91300005 1.6503382e-38
0.00086952385 0.12782001 0.91300005 1.6503383e-38
0.0026085717 0.12782001 0.91300005 1.6411189e-38
0.0043476191 0.12782001 0.91300005 1.6411547e-38
0.0061000003 0.12810001 0.91500002 1.6411545e-38
0.0078428574 0.12810001 0.91500002 1.6319348e-38
0.0096066669 0.12838002 0.91700006 1.6318991e-38
0.011353334 0.12838002 0.91700006 1.6226798e-38
0.013100001 0.12838002 0.91700006 1.6134244e-38
0.014846668 0.12838002 0.91700006 1.6042047e-38
0.016593335 0.12838002 0.91700006 1.6042045e-38
0.0184 0.1288 0.92000002 1.5950208e-38
0.020152383 0.1288 0.92000002 1.5949848e-38
0.021904763 0.1288 0.92000002 1.5949845e-38
0.023657145 0.1288 0.92000002 1.6041682e-38
0.025464764 0.12908001 0.92200005 1.6041684e-38
0.027220953 0.12908001 0.92200005 1.6041324e-38
0.028977145 0.12908001 0.92200005 1.6041679e-38
0.030733336 0.12908001 0.92200005 1.6041679e-38
0.032489527 0.12908001 0.92200005 1.5950201e-38
0.034357145 0.1295 0.92500007 1.5858011e-38
0.036314286 0.13020001 0.93000007 1.622715e-38
0.038085718 0.13020001 0.93000007 1.6688084e-38
0.039857145 0.13020001 0.93000007 1.3366543e-38
-0.022690477 0.13523525 0.95300007 1.1706349e-38
-0.020809526 0.13480954 0.95000005 1.3651448e-38
-0.019000001 0.13480954 0.95000005 1.5580345e-38
-0.017154288 0.13452572 0.94800007 1.5488503e-38
-0.015170477 0.13296477 0.93700004 1.5396672e-38
-0.013314286 0.13225524 0.93200004 1.5580348e-38
-0.011452381 0.13126191 0.92500007 1.5672904e-38
-0.0096904766 0.13126191 0.92500007 1.5856936e-38
-0.0079028578 0.1308362 0.92200005 1.6042401e-38
-0.0061133336 0.13012667 0.91700006 1.6227148e-38
-0.0043571433 0.12984286 0.91500002 1.6411181e-38
-0.0026085717 0.12955905 0.91300005 1.6503019e-38
-0.00086952385 0.12955905 0.91300005 1.6503022e-38
0.00086952385 0.12955905 0.91300005 1.6411189e-38
0.0026085717 0.12955905 0.91300005 1.6318994e-38
0.0043476191 0.12955905 0.91300005 1.6319351e-38
0.0060866671 0.12955905 0.91300005 1.6227513e-38
0.0078428574 0.12984286 0.91500002 1.6227151e-38
0.0095857149 0.12984286 0.91500002 1.6135316e-38
0.011328572 0.12984286 0.91500002 1.6042763e-38
0.013100001 0.13012667 0.91700006 1.5950208e-38
0.014846668 0.13012667 0.91700006 1.5949491e-38
0.016683811 0.1308362 0.92200005 1.5857653e-38
0.018440001 0.1308362 0.92200005 1.5857651e-38
0.020196192 0.1308362 0.92200005 1.5857651e-38
0.021904763 0.1305524 0.92000002 1.5949485e-38
0.023657145 0.1305524 0.92000002 1.5949488e-38
0.02554762 0.13126191 0.92500007 1.5949492e-38
0.027309526 0.13126191 0.92500007 1.5857654e-38
0.02907143 0.13126191 0.92500007 1.5949487e-38
0.030733336 0.1308362 0.92200005 1.5949485e-38
0.03259524 0.13126191 0.92500007 1.5858008e-38
0.034431431 0.13154572 0.92700005 1.567434e-38
0.036314286 0.13197143 0.93000007 1.6134955e-38
0.038085718 0.13197143 0.93000007 1.6500114e-38
0.039857145 0.13197143 0.93000007 1.3459828e-38
-0.024557145 0.1373381 0.95500004 7.7386652e-39
-0.022690477 0.13705048 0.95300007 1.0050774e-38
-0.02087524 0.13705048 0.95300007 1.3002503e-38
-0.019000001 0.13661906 0.95000005 1.6039882e-38
-0.017045716 0.13546859 0.94200003 1.5672171e-38
-0.015170477 0.13474953 0.93700004 1.5304119e-38
-0.013357144 0.13446191 0.93500006 1.5488513e-38
-0.011477144 0.13331144 0.92700005 1.5580708e-38
-0.0097114295 0.13331144 0.92700005 1.5765456e-38
-0.0079285717 0.13302381 0.92500007 1.585801e-38
-0.0061333338 0.13230477 0.92000002 1.6134593e-38
-0.0043571433 0.13158572 0.91500002 1.6318625e-38
-0.0026142858 0.13158572 0.91500002 1.6318628e-38
-0.00086952385 0.13129811 0.91300005 1.6410109e-38
0.00086952385 0.13129811 0.91300005 1.6318635e-38
0.0026085717 0.13129811 0.91300005 1.6318275e-38
0.0043476191 0.13129811 0.91300005 1.6226797e-38
0.0060666669 0.13086668 0.91000003 1.6134958e-38
0.0078257145 0.13129811 0.91300005 1.6135313e-38
0.0095857149 0.13158572 0.91500002 1.6043476e-38
0.011328572 0.13158572 0.91500002 1.5950561e-38
0.013100001 0.13187334 0.91700006 1.5857292e-38
0.014846668 0.13187334 0.91700006 1.5857292e-38
0.016683811 0.13259239 0.92200005 1.5857291e-38
0.018500002 0.13302381 0.92500007 1.5857288e-38
0.020196192 0.13259239 0.92200005 1.5949125e-38
0.021952383 0.13259239 0.92200005 1.5949484e-38
0.023708573 0.13259239 0.92200005 1.5857654e-38
0.02554762 0.13302381 0.92500007 1.5857658e-38
0.027309526 0.13302381 0.92500007 1.5765461e-38
0.02907143 0.13302381 0.92500007 1.5857292e-38
0.030833336 0.13302381 0.92500007 1.6040605e-38
0.03259524 0.13302381 0.92500007 1.5856932e-38
0.034542859 0.13374287 0.93000007 1.5672905e-38
0.036314286 0.13374287 0.93000007 1.6134595e-38
0.038085718 0.13374287 0.93000007 1.650335e-38
0.039942861 0.13403049 0.93200004 1.2444628e-38
0.041852385 0.13446191 0.93500006 8.2915237e-39
0.043633334 0.13446191 0.93500006 7.6471814e-39
-0.024557145 0.13915715 0.95500004 7.1801286e-39
-0.022738097 0.13915715 0.95500004 8.390552e-39
-0.02087524 0.13886572 0.95300007 1.2451465e-38
-0.019000001 0.13842858 0.95000005 1.640506e-38
-0.017100001 0.13770001 0.94500005 1.5856205e-38
-0.015170477 0.13653429 0.93700004 1.5212999e-38
-0.013357144 0.13624287 0.93500006 1.5397032e-38
-0.011514287 0.13551429 0.93000007 1.5489226e-38
-0.0097428579 0.13551429 0.93000007 1.5581779e-38
-0.0079457145 0.13507715 0.92700005 1.5673975e-38
-0.0061466671 0.13434859 0.92200005 1.5950201e-38
-0.004366667 0.13362001 0.91700006 1.6226069e-38
-0.0026142858 0.13332859 0.91500002 1.6226791e-38
-0.00087142864 0.13332859 0.91500002 1.6226434e-38
0.00087142864 0.13332859 0.91500002 1.6226436e-38
0.0026085717 0.13303715 0.91300005 1.6226076e-38
0.0043476191 0.13303715 0.91300005 1.6134241e-38
0.0060666669 0.13260001 0.91000003 1.6042761e-38
0.0078257145 0.13303715 0.91300005 1.6043117e-38
0.0095857149 0.13332859 0.91500002 1.5950563e-38
0.011353334 0.13362001 0.91700006 1.5858008e-38
0.013142858 0.13405715 0.92000002 1.5765454e-38
0.014846668 0.13362001 0.91700006 1.5765095e-38
0.016683811 0.13434859 0.92200005 1.5765451e-38
0.018500002 0.13478573 0.92500007 1.5949121e-38
0.020261906 0.13478573 0.92500007 1.6040596e-38
0.021952383 0.13434859 0.92200005 1.5949119e-38
0.023708573 0.13434859 0.92200005 1.5765451e-38
0.02554762 0.13478573 0.92500007 1.5765456e-38
0.027309526 0.13478573 0.92500007 1.567326e-38
0.029134288 0.13507715 0.92700005 1.5856571e-38
0.030900002 0.13507715 0.92700005 1.6039882e-38
0.032665715 0.13507715 0.92700005 1.585585e-38
0.034617145 0.13580573 0.93200004 1.567362e-38
0.036392383 0.13580573 0.93200004 1.6134595e-38
0.038167622 0.13580573 0.93200004 1.6496153e-38
0.040071432 0.13624287 0.93500006 1.1431166e-38
0.041852385 0.13624287 0.93500006 6.2700553e-39
-0.024557145 0.14097621 0.95500004 7.0929664e-39
-0.022738097 0.14097621 0.95500004 7.7372933e-39
-0.02087524 0.14068097 0.95300007 1.0416708e-38
-0.018960001 0.13994287 0.94800007 1.3098612e-38
-0.017100001 0.13950001 0.94500005 1.4292493e-38
-0.015219049 0.13876191 0.94000006 1.5579982e-38
-0.013385715 0.13831906 0.93700004 1.5488862e-38
-0.011539049 0.13758096 0.93200004 1.5397744e-38
-0.0097638099 0.13758096 0.93200004 1.5489578e-38
-0.0079457145 0.13684286 0.92700005 1.5581417e-38
-0.0061666672 0.13654763 0.92500007 1.5765809e-38
-0.0043904763 0.13610478 0.92200005 1.6041679e-38
-0.0026200002 0.13536668 0.91700006 1.6042042e-38
-0.00087142864 0.13507144 0.91500002 1.6134237e-38
0.00087333337 0.13536668 0.91700006 1.6133878e-38
0.0026142858 0.13507144 0.91500002 1.6133521e-38
0.0043571433 0.13507144 0.91500002 1.6041685e-38
0.0060866671 0.1347762 0.91300005 1.5950207e-38
0.0078428574 0.13507144 0.91500002 1.585801e-38
0.0095857149 0.13507144 0.91500002 1.5856932e-38
0.011415238 0.13610478 0.92200005 1.5765095e-38
0.01317143 0.13610478 0.92200005 1.5672541e-38
0.01492762 0.13610478 0.92200005 1.5672898e-38
0.016738096 0.13654763 0.92500007 1.5673254e-38
0.018500002 0.13654763 0.92500007 1.5764728e-38
0.020261906 0.13654763 0.92500007 1.5856204e-38
0.02202381 0.13654763 0.92500007 1.5764725e-38
0.023785716 0.13654763 0.92500007 1.5672891e-38
0.025602859 0.13684286 0.92700005 1.5672893e-38
0.027368573 0.13684286 0.92700005 1.5672535e-38
0.029134288 0.13684286 0.92700005 1.5764014e-38
0.030900002 0.13684286 0.92700005 1.585513e-38
0.032771431 0.13728572 0.93000007 1.6132428e-38
0.034728575 0.13802382 0.93500006 1.6317183e-38
0.036509525 0.13802382 0.93500006 1.5490312e-38
0.038167622 0.13758096 0.93200004 1.4751616e-38
0.040157147 0.13831906 0.93700004 1.0406942e-38
0.041941907 0.13831906 0.93700004 6.0666428e-39
0.043726668 0.13831906 0.93700004 6.9089507e-39
-0.024557145 0.14279525 0.95500004 7.0936937e-39
-0.022738097 0.14279525 0.95500004 7.0940623e-39
-0.020919049 0.14279525 0.95500004 8.3790516e-39
-0.019000001 0.14204763 0.95000005 9.6769888e-39
-0.017100001 0.14130001 0.94500005 1.2818812e-38
-0.015219049 0.14055239 0.94000006 1.5853337e-38
-0.013385715 0.14010382 0.93700004 1.5580707e-38
-0.011576192 0.13980477 0.93500006 1.5213718e-38
-0.0097638099 0.1393562 0.93200004 1.5397026e-38
-0.0079714293 0.13905716 0.93000007 1.5488864e-38
-0.0061800005 0.13860857 0.92700005 1.5673257e-38
-0.0044047623 0.13830954 0.92500007 1.5765453e-38
-0.0026342859 0.13786097 0.92200005 1.585765e-38
-0.00087809528 0.13786097 0.92200005 1.5949844e-38
0.00088095246 0.13830954 0.92500007 1.5949845e-38
0.0026342859 0.13786097 0.92200005 1.5949487e-38
0.0043904763 0.13786097 0.92200005 1.5949128e-38
0.0061466671 0.13786097 0.92200005 1.585765e-38
0.0079285717 0.13830954 0.92500007 1.5765813e-38
0.0096904766 0.13830954 0.92500007 1.5673258e-38
0.011452381 0.13830954 0.92500007 1.5673258e-38
0.013214286 0.13830954 0.92500007 1.5580704e-38
0.014976191 0.13830954 0.92500007 1.5580703e-38
0.016738096 0.13830954 0.92500007 1.5488864e-38
0.018540001 0.13860857 0.92700005 1.5580697e-38
0.020261906 0.13830954 0.92500007 1.5580337e-38
0.02207143 0.13860857 0.92700005 1.5580696e-38
0.023837144 0.13860857 0.92700005 1.5488503e-38
0.025685716 0.13905716 0.93000007 1.558034e-38
0.027457144 0.13905716 0.93000007 1.5579982e-38
0.029228574 0.13905716 0.93000007 1.5671461e-38
0.031066669 0.1393562 0.93200004 1.5672896e-38
0.032841906 0.1393562 0.93200004 1.631718e-38
0.034728575 0.13980477 0.93500006 1.6960353e-38
0.036509525 0.13980477 0.93500006 1.4941013e-38
0.038290478 0.13980477 0.93500006 1.289011e-38
0.040071432 0.13980477 0.93500006 9.3780905e-39
0.041852385 0.13980477 0.93500006 5.8940855e-39
-0.024557145 0.14461429 0.95500004 7.2791682e-39
-0.022738097 0.14461429 0.95500004 7.4613804e-39
-0.02087524 0.14431144 0.95300007 8.4658073e-39
-0.019000001 0.14385715 0.95000005 9.3709579e-39
-0.017154288 0.1435543 0.94800007 1.0959135e-38
-0.01525143 0.14264572 0.94200003 1.2545465e-38
-0.013428573 0.14234287 0.94000006 1.4108836e-38
-0.011576192 0.14158572 0.93500006 1.5672542e-38
-0.0097952392 0.14158572 0.93500006 1.5488862e-38
-0.0079714293 0.14082858 0.93000007 1.5395954e-38
-0.0062000002 0.14082858 0.93000007 1.5488869e-38
-0.004414286 0.14037429 0.92700005 1.5580704e-38
-0.0026428574 0.14007144 0.92500007 1.5673256e-38
-0.00088095246 0.14007144 0.92500007 1.576581e-38
0.00088095246 0.14007144 0.92500007 1.5765453e-38
0.0026428574 0.14007144 0.92500007 1.5765094e-38
0.0043904763 0.13961715 0.92200005 1.5765093e-38
0.0061666672 0.14007144 0.92500007 1.5673257e-38
0.0079285717 0.14007144 0.92500007 1.558142e-38
0.0096904766 0.14007144 0.92500007 1.5580703e-38
0.011452381 0.14007144 0.92500007 1.5488867e-38
0.013214286 0.14007144 0.92500007 1.548815e-38
0.014976191 0.14007144 0.92500007 1.5396313e-38
0.016774287 0.14037429 0.92700005 1.5395951e-38
0.018540001 0.14037429 0.92700005 1.5395949e-38
0.020305716 0.14037429 0.92700005 1.5395949e-38
0.02207143 0.14037429 0.92700005 1.5395947e-38
0.023914287 0.14082858 0.93000007 1.5395591e-38
0.025740953 0.14113143 0.93200004 1.5763652e-38
0.027516192 0.14113143 0.93200004 1.6222113e-38
0.02929143 0.14113143 0.93200004 1.6040954e-38
0.031066669 0.14113143 0.93200004 1.5857287e-38
0.032841906 0.14113143 0.93200004 1.5117944e-38
0.034728575 0.14158572 0.93500006 1.4296368e-38
0.036509525 0.14158572 0.93500006 1.1786597e-38
0.038290478 0.14158572 0.93500006 9.2758363e-39
0.040071432 0.14158572 0.93500006 8.0948963e-39
0.042076193 0.14234287 0.94000006 6.9121597e-39
0.043866668 0.14234287 0.94000006 7.1901815e-39
-0.024557145 0.14643334 0.95500004 7.4657034e-39
-0.022738097 0.14643334 0.95500004 7.8305245e-39
-0.02087524 0.14612667 0.95300007 8.4683409e-39
-0.019000001 0.14566667 0.95000005 9.1047518e-39
-0.017154288 0.14536001 0.94800007 9.1933797e-39
-0.01525143 0.14444001 0.94200003 9.2178184e-39
-0.013428573 0.14413334 0.94000006 1.272842e-38
-0.011600954 0.14367335 0.93700004 1.6129565e-38
-0.0097952392 0.14336668 0.93500006 1.5673258e-38
-0.0079885721 0.14290668 0.93200004 1.5213361e-38
-0.0062000002 0.14260001 0.93000007 1.5304835e-38
-0.004414286 0.14214002 0.92700005 1.539667e-38
-0.0026485715 0.14214002 0.92700005 1.5489225e-38
-0.00088285719 0.14214002 0.92700005 1.558106e-38
0.00088285719 0.14214002 0.92700005 1.558106e-38
0.0026428574 0.14183335 0.92500007 1.5581059e-38
0.0044047623 0.14183335 0.92500007 1.5581059e-38
0.0061666672 0.14183335 0.92500007 1.5488864e-38
0.0079457145 0.14214002 0.92700005 1.5488864e-38
0.0097114295 0.14214002 0.92700005 1.5396311e-38
0.011477144 0.14214002 0.92700005 1.5396311e-38
0.013242858 0.14214002 0.92700005 1.5304114e-38
0.015008572 0.14214002 0.92700005 1.5303753e-38
0.016774287 0.14214002 0.92700005 1.5212278e-38
0.018600002 0.14260001 0.93000007 1.5211203e-38
0.020305716 0.14214002 0.92700005 1.5212279e-38
0.022142859 0.14260001 0.93000007 1.5211922e-38
0.023965716 0.14290668 0.93200004 1.5213361e-38
0.025740953 0.14290668 0.93200004 1.6040602e-38
0.027516192 0.14290668 0.93200004 1.6777419e-38
0.02929143 0.14290668 0.93200004 1.6412927e-38
0.031066669 0.14290668 0.93200004 1.6028709e-38
0.032947622 0.14336668 0.93500006 1.381675e-38
0.034728575 0.14336668 0.93500006 1.1597225e-38
0.036587622 0.14367335 0.93700004 8.6329724e-39
0.038290478 0.14336668 0.93500006 5.7006994e-39
0.040071432 0.14336668 0.93500006 6.8134915e-39
0.042165715 0.14444001 0.94200003 7.8305091e-39
0.043960001 0.14444001 0.94200003 7.7426308e-39
-0.024634287 0.1487181 0.95800006 7.1909088e-39
-0.022738097 0.1482524 0.95500004 7.650808e-39
-0.020919049 0.1482524 0.95500004 7.8298196e-39
-0.019060001 0.14794192 0.95300007 8.0087991e-39
-0.017190477 0.1474762 0.95000005 8.7413012e-39
-0.01525143 0.14623429 0.94200003 9.4749861e-39
-0.013428573 0.14592382 0.94000006 1.1146396e-38
-0.011600954 0.1454581 0.93700004 1.2729137e-38
-0.0097952392 0.14514762 0.93500006 1.4108835e-38
-0.0080142859 0.14514762 0.93500006 1.5580706e-38
-0.0062133339 0.14468192 0.93200004 1.548886e-38
-0.0044285716 0.14437144 0.93000007 1.5487785e-38
-0.0026571429 0.14437144 0.93000007 1.5580699e-38
-0.00088285719 0.14390573 0.92700005 1.558034e-38
0.00088285719 0.14390573 0.92700005 1.5488862e-38
0.0026485715 0.14390573 0.92700005 1.5396666e-38
0.004414286 0.14390573 0.92700005 1.5396665e-38
