# .PCD v0.7 - Point Cloud Data file format
VERSION 0.7
FIELDS x y z rgb
SIZE 4 4 4 4
TYPE F F F F
COUNT 1 1 1 1
WIDTH 978
HEIGHT 1
VIEWPOINT 0 0 0 1 0 0 0
POINTS 978
DATA ascii
-0.049953338 0.27516669 0.88900006 9.3838624e-39
-0.047988575 0.27361906 0.88400006 8.6499029e-39
-0.046200003 0.27300003 0.88200003 8.724885e-39
-0.044520002 0.27300003 0.88200003 8.8357459e-39
-0.04274286 0.27238098 0.88000005 1.0861163e-38
-0.041066669 0.27238098 0.88000005 1.2888368e-38
-0.039300956 0.27176192 0.87800002 1.3724222e-38
-0.037500001 0.27083334 0.87500006 1.4463585e-38
-0.035833336 0.27083334 0.87500006 1.5301599e-38
-0.034088574 0.27021429 0.87300003 1.6033054e-38
-0.032425717 0.27021429 0.87300003 1.631681e-38
-0.030762859 0.27021429 0.87300003 1.6590526e-38
-0.029100003 0.27021429 0.87300003 1.6591964e-38
-0.027437145 0.27021429 0.87300003 1.6591605e-38
-0.025774287 0.27021429 0.87300003 1.6591606e-38
-0.024111429 0.27021429 0.87300003 1.6499049e-38
-0.022397144 0.26959527 0.87100005 1.6682357e-38
-0.020738097 0.26959527 0.87100005 1.6774194e-38
-0.019079048 0.26959527 0.87100005 1.6867467e-38
-0.017380001 0.26897621 0.86900002 1.6954624e-38
-0.015724763 0.26897621 0.86900002 1.5578152e-38
-0.014101906 0.26959527 0.87100005 1.4175844e-38
-0.012442858 0.26959527 0.87100005 1.1765138e-38
-0.010808572 0.27021429 0.87300003 9.3860106e-39
-0.0091666672 0.27083334 0.87500006 1.0763172e-38
-0.0075428574 0.27238098 0.88000005 1.2059283e-38
-0.0058800005 0.27300003 0.88200003 1.2343768e-38
-0.0042238096 0.27454764 0.88700002 1.2527083e-38
-0.0025400002 0.27516669 0.88900006 1.2526009e-38
-0.0008514286 0.2767143 0.89400005 1.2528167e-38
0.00085333339 0.27733335 0.89600003 1.2529607e-38
0.0025600002 0.27733335 0.89600003 1.2436319e-38
0.0042666672 0.27733335 0.89600003 9.9481345e-39
0.0059866672 0.2779524 0.89800006 7.3763721e-39
0.0076971436 0.2779524 0.89800006 7.6522275e-39
-0.058880005 0.27904001 0.89600003 9.5804618e-39
-0.056854289 0.27748287 0.89100003 9.1201997e-39
-0.055342861 0.27841717 0.89400005 8.658144e-39
-0.053640004 0.27841717 0.89400005 9.0204553e-39
-0.05176286 0.27748287 0.89100003 9.4781978e-39
-0.050065719 0.27748287 0.89100003 9.5693159e-39
-0.048151433 0.27623716 0.88700002 9.6611191e-39
-0.046200003 0.27468002 0.88200003 9.7453876e-39
-0.044520002 0.27468002 0.88200003 9.8268521e-39
-0.042840004 0.27468002 0.88200003 1.0573046e-38
-0.041066669 0.27405715 0.88000005 1.1204434e-38
-0.039390478 0.27405715 0.88000005 1.1495741e-38
-0.037628572 0.27343431 0.87800002 1.1778452e-38
-0.035833336 0.27250001 0.87500006 1.2060804e-38
-0.034166668 0.27250001 0.87500006 1.2433526e-38
-0.032500003 0.27250001 0.87500006 1.2804097e-38
-0.030833336 0.27250001 0.87500006 1.3280859e-38
-0.029100003 0.27187717 0.87300003 1.3736098e-38
-0.027437145 0.27187717 0.87300003 1.420496e-38
-0.025774287 0.27187717 0.87300003 1.4291054e-38
-0.024111429 0.27187717 0.87300003 1.4480105e-38
-0.022448573 0.27187717 0.87300003 1.4196703e-38
-0.020785715 0.27187717 0.87300003 1.39255e-38
-0.019122858 0.27187717 0.87300003 1.3450178e-38
-0.017420001 0.2712543 0.87100005 1.3088178e-38
-0.015760953 0.2712543 0.87100005 1.2333366e-38
-0.014101906 0.2712543 0.87100005 1.1574629e-38
-0.012471429 0.27187717 0.87300003 1.1309148e-38
-0.010833334 0.27250001 0.87500006 1.1036892e-38
-0.0091980956 0.27343431 0.87800002 1.20593e-38
-0.0075428574 0.27405715 0.88000005 1.3080607e-38
-0.0058800005 0.27468002 0.88200003 1.280402e-38
-0.0042333337 0.27686003 0.88900006 1.2529237e-38
-0.0025400002 0.27686003 0.88900006 1.2528882e-38
-0.00085333339 0.27904001 0.89600003 1.2620727e-38
0.00085523818 0.27966288 0.89800006 1.2622531e-38
0.0025657145 0.27966288 0.89800006 1.2531385e-38
0.0043000001 0.28122002 0.90300006 9.9506358e-39
0.0060333339 0.28184289 0.90500003 7.3760119e-39
0.0077571436 0.28184289 0.90500003 7.6522345e-39
-0.059011433 0.28137335 0.89800006 1.0694694e-38
-0.057173338 0.2807467 0.89600003 8.2058006e-39
-0.055466671 0.2807467 0.89600003 5.7194249e-39
-0.053640004 0.28012002 0.89400005 7.2677126e-39
-0.05176286 0.27918002 0.89100003 8.7417272e-39
-0.050065719 0.27918002 0.89100003 9.7544134e-39
-0.048151433 0.27792668 0.88700002 1.067347e-38
-0.046304766 0.27698669 0.88400006 1.0768879e-38
-0.044520002 0.27636001 0.88200003 1.0853557e-38
-0.042840004 0.27636001 0.88200003 1.0215747e-38
-0.041066669 0.27573335 0.88000005 9.5617881e-39
-0.039390478 0.27573335 0.88000005 9.3677237e-39
-0.037628572 0.2751067 0.87800002 9.1062134e-39
-0.035833336 0.27416667 0.87500006 8.9132209e-39
-0.034166668 0.27416667 0.87500006 8.7377896e-39
-0.032500003 0.27416667 0.87500006 9.2762357e-39
-0.030833336 0.27416667 0.87500006 9.8484307e-39
-0.029166669 0.27416667 0.87500006 1.0866173e-38
-0.027500002 0.27416667 0.87500006 1.1788125e-38
-0.025833335 0.27416667 0.87500006 1.2070457e-38
-0.024166668 0.27416667 0.87500006 1.2340578e-38
-0.022448573 0.27354002 0.87300003 1.1698445e-38
-0.020785715 0.27354002 0.87300003 1.0952262e-38
-0.019122858 0.27354002 0.87300003 1.0011287e-38
-0.017420001 0.27291334 0.87100005 9.1040343e-39
-0.015760953 0.27291334 0.87100005 9.0921779e-39
-0.014134287 0.27354002 0.87300003 9.012182e-39
-0.012500001 0.27416667 0.87500006 1.0859657e-38
-0.010870477 0.2751067 0.87800002 1.2701411e-38
-0.0092190485 0.27573335 0.88000005 1.3355763e-38
-0.0075428574 0.27573335 0.88000005 1.4000048e-38
-0.0058933338 0.27698669 0.88400006 1.3262854e-38
-0.0042333337 0.27855334 0.88900006 1.2435257e-38
-0.0025400002 0.27855334 0.88900006 1.2622515e-38
-0.00085333339 0.2807467 0.89600003 1.2714719e-38
0.0008580953 0.28231335 0.90100002 1.2715805e-38
0.0025857145 0.28356668 0.90500003 1.2621072e-38
0.0043238099 0.28450668 0.90800005 1.0039246e-38
0.0060533336 0.28450668 0.90800005 7.3763749e-39
0.0077828579 0.28450668 0.90800005 7.7440742e-39
0.0095123816 0.28450668 0.90800005 8.0199394e-39
-0.063266672 0.28686669 0.91000003 7.9334919e-39
-0.061195243 0.28529051 0.90500003 9.0413178e-39
-0.059208576 0.28402954 0.90100002 1.0149791e-38
-0.057300955 0.28308383 0.89800006 9.4064878e-39
-0.055590481 0.28308383 0.89800006 8.6635586e-39
-0.053760003 0.28245336 0.89600003 8.4737933e-39
-0.051937148 0.28182289 0.89400005 8.1903625e-39
-0.050065719 0.28087717 0.89100003 8.8374835e-39
-0.048260003 0.28024668 0.88900006 9.5710955e-39
-0.046461906 0.27961621 0.88700002 9.3885035e-39
-0.044620954 0.27867049 0.88400006 9.2970296e-39
-0.042840004 0.27804002 0.88200003 9.2959548e-39
-0.041160002 0.27804002 0.88200003 9.2963163e-39
-0.039390478 0.27740955 0.88000005 9.4785538e-39
-0.037714288 0.27740955 0.88000005 9.7626516e-39
-0.035956193 0.27677906 0.87800002 9.7529476e-39
-0.034166668 0.27583334 0.87500006 9.7464694e-39
-0.032500003 0.27583334 0.87500006 9.8357714e-39
-0.03093905 0.27677906 0.87800002 1.0010502e-38
-0.029166669 0.27583334 0.87500006 1.0204603e-38
-0.027500002 0.27583334 0.87500006 1.0469727e-38
-0.025833335 0.27583334 0.87500006 1.0759963e-38
-0.024166668 0.27583334 0.87500006 1.1112592e-38
-0.022500001 0.27583334 0.87500006 1.085143e-38
-0.020833334 0.27583334 0.87500006 1.0653372e-38
-0.019166667 0.27583334 0.87500006 1.0010844e-38
-0.017460002 0.27520287 0.87300003 9.367641e-39
-0.015797144 0.27520287 0.87300003 9.5566958e-39
-0.014166668 0.27583334 0.87500006 9.7561734e-39
-0.012500001 0.27583334 0.87500006 1.1417843e-38
-0.010870477 0.27677906 0.87800002 1.3073778e-38
-0.0092190485 0.27740955 0.88000005 1.3263214e-38
-0.0075600003 0.27804002 0.88200003 1.3453708e-38
-0.0058933338 0.27867049 0.88400006 1.2802257e-38
-0.0042238096 0.27961621 0.88700002 1.2244063e-38
-0.0025400002 0.28024668 0.88900006 1.252853e-38
-0.00086000003 0.28466001 0.90300006 1.2807994e-38
0.00086000003 0.28466001 0.90300006 1.2717603e-38
0.0025857145 0.28529051 0.90500003 1.2717933e-38
0.0043238099 0.2862362 0.90800005 1.0043194e-38
0.0060533336 0.2862362 0.90800005 7.4682132e-39
0.0077828579 0.2862362 0.90800005 7.7444371e-39
0.0095647629 0.28781241 0.91300005 8.1117791e-39
-0.063475244 0.28955144 0.91300005 4.3418588e-39
-0.061195243 0.28701431 0.90500003 7.0054806e-39
-0.059208576 0.28574574 0.90100002 9.5890616e-39
-0.057300955 0.2847943 0.89800006 1.0606417e-38
-0.055590481 0.2847943 0.89800006 1.161089e-38
-0.053880002 0.2847943 0.89800006 9.6820083e-39
-0.051937148 0.28352574 0.89400005 7.6537072e-39
-0.050234288 0.28352574 0.89400005 8.0181513e-39
-0.048368573 0.2825743 0.89100003 8.3822745e-39
-0.046461906 0.28130573 0.88700002 8.0999619e-39
-0.044772383 0.28130573 0.88700002 7.7340451e-39
-0.042937145 0.28035429 0.88400006 8.3750901e-39
-0.041160002 0.27972001 0.88200003 9.0211728e-39
-0.039390478 0.27908573 0.88000005 9.6708427e-39
-0.037714288 0.27908573 0.88000005 1.0311529e-38
-0.036038097 0.27908573 0.88000005 1.0589177e-38
-0.034283813 0.27845144 0.87800002 1.0766734e-38
-0.03261143 0.27845144 0.87800002 1.0493363e-38
-0.03093905 0.27845144 0.87800002 1.0116353e-38
-0.029266668 0.27845144 0.87800002 9.6561165e-39
-0.027594287 0.27845144 0.87800002 9.1058308e-39
-0.025833335 0.2775 0.87500006 9.4782034e-39
-0.024166668 0.2775 0.87500006 9.8441105e-39
-0.022500001 0.2775 0.87500006 1.0125357e-38
-0.020833334 0.2775 0.87500006 1.029931e-38
-0.019166667 0.2775 0.87500006 1.0010499e-38
-0.017460002 0.27686572 0.87300003 9.6435216e-39
-0.015833335 0.2775 0.87500006 1.0011229e-38
-0.014166668 0.2775 0.87500006 1.0401925e-38
-0.012542858 0.27845144 0.87800002 1.1981103e-38
-0.010870477 0.27845144 0.87800002 1.3447961e-38
-0.0092190485 0.27908573 0.88000005 1.3169945e-38
-0.0075600003 0.27972001 0.88200003 1.2894443e-38
-0.0059133335 0.28130573 0.88700002 1.2431325e-38
-0.0042333337 0.28194001 0.88900006 1.1974656e-38
-0.0025600002 0.28416002 0.89600003 1.2438854e-38
-0.00086000003 0.28638002 0.90300006 1.2901267e-38
0.00086000003 0.28638002 0.90300006 1.281195e-38
0.0025857145 0.28701431 0.90500003 1.2715061e-38
0.0043238099 0.28796574 0.90800005 1.0131441e-38
0.0060666669 0.28860003 0.91000003 7.4685733e-39
0.0078257145 0.28955144 0.91300005 7.8366355e-39
0.0095647629 0.28955144 0.91300005 8.1121392e-39
-0.063266672 0.29033336 0.91000003 5.0700814e-39
-0.061195243 0.2887381 0.90500003 6.8246472e-39
-0.059340004 0.2881 0.90300006 8.573818e-39
-0.057492387 0.28746194 0.90100002 7.8405592e-39
-0.055590481 0.28650478 0.89800006 7.1134492e-39
-0.053880002 0.28650478 0.89800006 7.6605554e-39
-0.052053336 0.28586668 0.89600003 8.1215027e-39
-0.050234288 0.28522858 0.89400005 8.6671095e-39
-0.048368573 0.28427145 0.89100003 9.2174218e-39
-0.046566669 0.28363335 0.88900006 8.6617621e-39
-0.044772383 0.28299525 0.88700002 8.1943114e-39
-0.042937145 0.28203812 0.88400006 8.0131291e-39
-0.041160002 0.28140002 0.88200003 7.9159224e-39
-0.039480001 0.28140002 0.88200003 8.6542035e-39
-0.037800003 0.28140002 0.88200003 9.3860148e-39
-0.036038097 0.28076193 0.88000005 9.4817936e-39
-0.034361906 0.28076193 0.88000005 9.6661722e-39
-0.032685716 0.28076193 0.88000005 9.5707382e-39
-0.031009525 0.28076193 0.88000005 9.4781936e-39
-0.029266668 0.28012383 0.87800002 9.3856477e-39
-0.027594287 0.28012383 0.87800002 9.2984729e-39
-0.025921907 0.28012383 0.87800002 9.5721829e-39
-0.024249526 0.28012383 0.87800002 9.8534347e-39
-0.022577144 0.28012383 0.87800002 9.9409697e-39
-0.020904763 0.28012383 0.87800002 1.013179e-38
-0.019232383 0.28012383 0.87800002 9.6514208e-39
-0.017560001 0.28012383 0.87800002 9.2758377e-39
-0.015833335 0.2791667 0.87500006 9.562116e-39
-0.014215239 0.28012383 0.87800002 9.9510338e-39
-0.012542858 0.28012383 0.87800002 1.1612734e-38
-0.010895239 0.28076193 0.88000005 1.327149e-38
-0.0092400005 0.28140002 0.88200003 1.2986633e-38
-0.0076028574 0.28299525 0.88700002 1.2706825e-38
-0.0059133335 0.28299525 0.88700002 1.2526385e-38
-0.0042428575 0.28427145 0.89100003 1.2345947e-38
-0.0025657145 0.28650478 0.89800006 1.2809073e-38
-0.00086000003 0.2881 0.90300006 1.3270766e-38
0.00086000003 0.2881 0.90300006 1.3087456e-38
0.0025857145 0.2887381 0.90500003 1.2903037e-38
0.0043333336 0.29033336 0.91000003 1.0228296e-38
0.0060666669 0.29033336 0.91000003 7.4682146e-39
0.0078257145 0.29129049 0.91300005 7.8362796e-39
0.0095647629 0.29129049 0.91300005 8.2039775e-39
-0.063266672 0.29206669 0.91000003 5.7197416e-39
-0.061195243 0.29046193 0.90500003 6.64959e-39
-0.059340004 0.28982002 0.90300006 7.4671426e-39
-0.057492387 0.2891781 0.90100002 5.0686605e-39
-0.055776194 0.2891781 0.90100002 2.5998851e-39
-0.053880002 0.28821525 0.89800006 5.6326299e-39
-0.052053336 0.28757334 0.89600003 8.574216e-39
-0.050234288 0.28693146 0.89400005 9.3113901e-39
-0.048368573 0.2859686 0.89100003 1.0047161e-38
-0.046566669 0.28532669 0.88900006 9.3189459e-39
-0.044873334 0.28532669 0.88900006 8.578525e-39
-0.043082859 0.28468478 0.88700002 7.659098e-39
-0.041393336 0.28468478 0.88700002 6.7328426e-39
-0.039569527 0.28372192 0.88400006 7.5521804e-39
-0.037800003 0.28308001 0.88200003 8.3797774e-39
-0.036120001 0.28308001 0.88200003 8.4691032e-39
-0.034440003 0.28308001 0.88200003 8.5620051e-39
-0.032685716 0.2824381 0.88000005 8.6448639e-39
-0.031009525 0.2824381 0.88000005 8.7413615e-39
-0.029333334 0.2824381 0.88000005 9.1101384e-39
-0.027594287 0.28179622 0.87800002 9.3852833e-39
-0.025921907 0.28179622 0.87800002 9.5660831e-39
-0.024304764 0.2824381 0.88000005 9.7515519e-39
-0.022628574 0.2824381 0.88000005 9.8372932e-39
-0.020904763 0.28179622 0.87800002 9.8405078e-39
-0.019276192 0.2824381 0.88000005 9.3716305e-39
-0.017600002 0.2824381 0.88000005 8.8242203e-39
-0.01588762 0.28179622 0.87800002 9.1026106e-39
-0.01424762 0.2824381 0.88000005 9.3985873e-39
-0.01257143 0.2824381 0.88000005 1.1247517e-38
-0.010895239 0.2824381 0.88000005 1.2988071e-38
-0.0092400005 0.28308001 0.88200003 1.2798646e-38
-0.0076028574 0.28468478 0.88700002 1.2526018e-38
-0.0059266672 0.28532669 0.88900006 1.2621808e-38
-0.0042428575 0.2859686 0.89100003 1.2716882e-38
-0.0025542858 0.28693146 0.89400005 1.3181091e-38
-0.00086000003 0.28982002 0.90300006 1.3639909e-38
0.00086000003 0.28982002 0.90300006 1.3363326e-38
0.0025857145 0.29046193 0.90500003 1.3084914e-38
0.0043333336 0.29206669 0.91000003 1.0319054e-38
0.0060666669 0.29206669 0.91000003 7.4689306e-39
0.0078257145 0.29302955 0.91300005 7.8366383e-39
0.0095647629 0.29302955 0.91300005 8.2043349e-39
-0.063127622 0.2931543 0.90800005 6.0842095e-39
-0.0613981 0.2931543 0.90800005 6.7295915e-39
-0.059471432 0.29218572 0.90500003 7.2798997e-39
-0.057747621 0.29218572 0.90500003 6.9150814e-39
-0.055900004 0.29154003 0.90300006 6.5434374e-39
-0.054060005 0.2908943 0.90100002 7.5604466e-39
-0.052169528 0.28992572 0.89800006 8.6603048e-39
-0.050346669 0.28928003 0.89600003 7.2859841e-39
-0.048531432 0.2886343 0.89400005 6.0045976e-39
-0.046671432 0.28766572 0.89100003 7.0183795e-39
-0.044873334 0.28702003 0.88900006 8.1308382e-39
-0.043082859 0.2863743 0.88700002 8.1218993e-39
-0.041393336 0.2863743 0.88700002 8.028605e-39
-0.039703812 0.2863743 0.88700002 8.7575241e-39
-0.037885718 0.28540573 0.88400006 9.5808205e-39
-0.036120001 0.28476003 0.88200003 9.1223647e-39
-0.034440003 0.28476003 0.88200003 8.7532221e-39
-0.032685716 0.2841143 0.88000005 8.4730437e-39
-0.031080002 0.28476003 0.88200003 8.1910716e-39
-0.029333334 0.2841143 0.88000005 7.7351143e-39
-0.027657144 0.2841143 0.88000005 7.2705544e-39
-0.025980955 0.2841143 0.88000005 7.548928e-39
-0.024249526 0.2834686 0.87800002 7.9126868e-39
-0.022628574 0.2841143 0.88000005 7.640053e-39
-0.020952383 0.2841143 0.88000005 7.3573705e-39
-0.019276192 0.2841143 0.88000005 6.4411665e-39
-0.017600002 0.2841143 0.88000005 5.5264185e-39
-0.01588762 0.2834686 0.87800002 8.0156823e-39
-0.01424762 0.2841143 0.88000005 1.0507072e-38
-0.01257143 0.2841143 0.88000005 1.1517613e-38
-0.01092 0.28476003 0.88200003 1.2614611e-38
-0.0092609534 0.28540573 0.88400006 1.2616397e-38
-0.0076200003 0.28702003 0.88900006 1.2619281e-38
-0.0059266672 0.28702003 0.88900006 1.2715436e-38
-0.004257143 0.2886343 0.89400005 1.2902352e-38
-0.002574286 0.2908943 0.90100002 1.3088551e-38
-0.00086000003 0.29154003 0.90300006 1.3274369e-38
0.00086000003 0.29154003 0.90300006 1.3089257e-38
0.0025857145 0.29218572 0.90500003 1.2998461e-38
0.0043238099 0.2931543 0.90800005 1.0137175e-38
0.0060666669 0.29380003 0.91000003 7.3742253e-39
0.0078000007 0.29380003 0.91000003 7.744084e-39
-0.064857148 0.29488382 0.90800005 6.6380825e-39
-0.06291905 0.29390955 0.90500003 6.4508312e-39
-0.0613981 0.29488382 0.90800005 6.8124419e-39
-0.059471432 0.29390955 0.90500003 7.1008936e-39
-0.057747621 0.29390955 0.90500003 8.7683141e-39
-0.056023814 0.29390955 0.90500003 1.0414166e-38
-0.054180004 0.29326001 0.90300006 9.5890672e-39
-0.052343812 0.2926105 0.90100002 8.7568052e-39
-0.050346669 0.29098669 0.89600003 5.3513556e-39
-0.048531432 0.29033718 0.89400005 1.8637536e-39
-0.046671432 0.28936288 0.89100003 4.8021251e-39
-0.04497429 0.28936288 0.89100003 7.6565785e-39
-0.043180004 0.28871337 0.88900006 8.4856287e-39
-0.041393336 0.28806382 0.88700002 9.3128474e-39
-0.039703812 0.28806382 0.88700002 1.0051819e-38
-0.037885718 0.28708956 0.88400006 1.069145e-38
-0.036201905 0.28708956 0.88400006 9.7777716e-39
-0.034440003 0.28644001 0.88200003 8.8547531e-39
-0.032760002 0.28644001 0.88200003 8.3023066e-39
-0.031080002 0.28644001 0.88200003 7.6555023e-39
-0.029400002 0.28644001 0.88200003 6.3687208e-39
-0.027720002 0.28644001 0.88200003 5.0815875e-39
-0.026040001 0.28644001 0.88200003 5.6304467e-39
-0.024360001 0.28644001 0.88200003 6.0910703e-39
-0.022680001 0.28644001 0.88200003 5.5443719e-39
-0.021000002 0.28644001 0.88200003 4.8918377e-39
-0.019320002 0.28644001 0.88200003 3.6014758e-39
-0.017640002 0.28644001 0.88200003 2.2339963e-39
-0.015923811 0.2857905 0.88000005 6.9262245e-39
-0.01424762 0.2857905 0.88000005 1.1519423e-38
-0.012600001 0.28644001 0.88200003 1.1884243e-38
-0.010944762 0.28708956 0.88400006 1.2249788e-38
-0.0092923818 0.28806382 0.88700002 1.2524935e-38
-0.0076200003 0.28871337 0.88900006 1.2712557e-38
-0.0059400005 0.28936288 0.89100003 1.2901974e-38
-0.004257143 0.29033718 0.89400005 1.2994898e-38
-0.002574286 0.2926105 0.90100002 1.2904151e-38
-0.00086000003 0.29326001 0.90300006 1.2812314e-38
0.00086190482 0.29390955 0.90500003 1.2812313e-38
0.0025942859 0.29488382 0.90800005 1.2808332e-38
0.0043333336 0.29553336 0.91000003 1.0040318e-38
0.0060666669 0.29553336 0.91000003 7.2841834e-39
0.0078257145 0.29650763 0.91300005 7.7444427e-39
-0.0613981 0.29661337 0.90800005 6.6326988e-39
-0.059668574 0.29661337 0.90800005 6.1850526e-39
-0.057939053 0.29661337 0.90800005 7.6594932e-39
-0.056209527 0.29661337 0.90800005 9.1331365e-39
-0.054480005 0.29661337 0.90800005 8.7625365e-39
-0.052576195 0.29563335 0.90500003 8.4874e-39
-0.050627623 0.29432669 0.90100002 6.8250438e-39
-0.048640002 0.29269335 0.89600003 5.2562916e-39
-0.046828575 0.29204002 0.89400005 6.179652e-39
-0.04497429 0.29106003 0.89100003 7.0951469e-39
-0.043277144 0.29106003 0.89100003 6.5484485e-39
-0.041486669 0.29040667 0.88900006 6.0939233e-39
-0.039793335 0.29040667 0.88900006 6.6452838e-39
-0.038014289 0.28975335 0.88700002 7.2024149e-39
-0.036324766 0.28975335 0.88700002 7.6608931e-39
-0.034518097 0.28877336 0.88400006 8.1258201e-39
-0.032834288 0.28877336 0.88400006 8.9487621e-39
-0.031150479 0.28877336 0.88400006 9.7806527e-39
-0.029466668 0.28877336 0.88400006 9.5026239e-39
-0.027782859 0.28877336 0.88400006 9.2299872e-39
-0.026099049 0.28877336 0.88400006 9.6852187e-39
-0.02441524 0.28877336 0.88400006 1.005222e-38
-0.022680001 0.28812003 0.88200003 9.5909071e-39
-0.021000002 0.28812003 0.88200003 9.1252724e-39
-0.019320002 0.28812003 0.88200003 8.670041e-39
-0.017640002 0.28812003 0.88200003 8.3102296e-39
-0.015923811 0.28746668 0.88000005 1.0514995e-38
-0.014280001 0.28812003 0.88200003 1.2719391e-38
-0.012628572 0.28877336 0.88400006 1.2621802e-38
-0.010944762 0.28877336 0.88400006 1.2618575e-38
-0.0092923818 0.28975335 0.88700002 1.2619653e-38
-0.0076200003 0.29040667 0.88900006 1.2712204e-38
-0.0059400005 0.29106003 0.89100003 1.2807624e-38
-0.0042761909 0.29334667 0.89800006 1.2811937e-38
-0.002574286 0.29432669 0.90100002 1.2718315e-38
-0.00086190482 0.29563335 0.90500003 1.2625048e-38
0.00086190482 0.29563335 0.90500003 1.2626485e-38
0.0025942859 0.29661337 0.90800005 1.2718647e-38
0.0043333336 0.29726669 0.91000003 1.0043546e-38
0.0060666669 0.29726669 0.91000003 7.3756602e-39
-0.063266672 0.29900002 0.91000003 7.7372414e-39
-0.061533336 0.29900002 0.91000003 6.4389903e-39
-0.059668574 0.29834288 0.90800005 5.1615568e-39
-0.057939053 0.29834288 0.90800005 6.4587458e-39
-0.056209527 0.29834288 0.90800005 7.7451742e-39
-0.054480005 0.29834288 0.90800005 7.9317291e-39
-0.052576195 0.29735717 0.90500003 8.1168266e-39
-0.050740004 0.29670003 0.90300006 8.3883786e-39
-0.048748575 0.29505715 0.89800006 8.5713265e-39
-0.046933338 0.29440001 0.89600003 7.5643576e-39
-0.04497429 0.29275715 0.89100003 6.5473583e-39
-0.043277144 0.29275715 0.89100003 4.7027647e-39
-0.041486669 0.29210001 0.88900006 2.7817512e-39
-0.039882861 0.29275715 0.89100003 3.2333939e-39
-0.038014289 0.29144287 0.88700002 3.6086308e-39
-0.036324766 0.29144287 0.88700002 5.4453435e-39
-0.034518097 0.29045716 0.88400006 7.2877988e-39
-0.032834288 0.29045716 0.88400006 9.5865617e-39
-0.031150479 0.29045716 0.88400006 1.1887469e-38
-0.029466668 0.29045716 0.88400006 1.2631478e-38
-0.027782859 0.29045716 0.88400006 1.3362933e-38
-0.026099049 0.29045716 0.88400006 1.3736733e-38
-0.02441524 0.29045716 0.88400006 1.400831e-38
-0.022808572 0.29144287 0.88700002 1.3641704e-38
-0.021119049 0.29144287 0.88700002 1.3272209e-38
-0.019363811 0.29045716 0.88400006 1.3826452e-38
-0.017680001 0.29045716 0.88400006 1.4284908e-38
-0.01596 0.28980002 0.88200003 1.4103385e-38
-0.014312382 0.29045716 0.88400006 1.3822132e-38
-0.012628572 0.29045716 0.88400006 1.335649e-38
-0.010981905 0.29144287 0.88700002 1.2897311e-38
-0.0092923818 0.29144287 0.88700002 1.2805835e-38
-0.0076371431 0.29275715 0.89100003 1.2712923e-38
-0.0059733335 0.29440001 0.89600003 1.2712924e-38
-0.0042761909 0.29505715 0.89800006 1.2623604e-38
-0.0025800001 0.29670003 0.90300006 1.2531772e-38
-0.00086190482 0.29735717 0.90500003 1.2440655e-38
0.00086190482 0.29735717 0.90500003 1.2533209e-38
0.0025942859 0.29834288 0.90800005 1.2529594e-38
0.0043333336 0.29900002 0.91000003 1.0038887e-38
0.0061133336 0.30130002 0.91700006 7.4678558e-39
-0.063266672 0.30073336 0.91000003 8.9397097e-39
-0.061533336 0.30073336 0.91000003 6.8138712e-39
-0.059668574 0.3000724 0.90800005 4.6854866e-39
-0.057939053 0.3000724 0.90800005 5.9855077e-39
-0.056333337 0.30073336 0.91000003 7.3648912e-39
-0.054600004 0.30073336 0.91000003 7.5579467e-39
-0.052750479 0.3000724 0.90800005 7.6601588e-39
-0.050740004 0.29842001 0.90300006 8.7585694e-39
-0.048748575 0.29676765 0.89800006 9.770199e-39
-0.046933338 0.2961067 0.89600003 8.6678171e-39
-0.045125715 0.29544574 0.89400005 7.4696565e-39
-0.043277144 0.29445431 0.89100003 7.1934367e-39
-0.041580003 0.29445431 0.89100003 7.0147964e-39
-0.039882861 0.29445431 0.89100003 6.7314062e-39
-0.038100004 0.29379335 0.88900006 6.4515823e-39
-0.03640667 0.29379335 0.88900006 7.0079623e-39
-0.034635242 0.29313239 0.88700002 7.6468661e-39
-0.032945715 0.29313239 0.88700002 8.5709622e-39
-0.031256191 0.29313239 0.88700002 9.5818771e-39
-0.029566668 0.29313239 0.88700002 8.9422628e-39
-0.027877145 0.29313239 0.88700002 8.3948372e-39
-0.026187621 0.29313239 0.88700002 9.1320323e-39
-0.02441524 0.29214096 0.88400006 9.9700494e-39
-0.022731431 0.29214096 0.88400006 1.1253252e-38
-0.021119049 0.29313239 0.88700002 1.2637962e-38
-0.019429525 0.29313239 0.88700002 1.3460895e-38
-0.017680001 0.29214096 0.88400006 1.4378887e-38
-0.015996192 0.29214096 0.88400006 1.4193776e-38
-0.014312382 0.29214096 0.88400006 1.4098353e-38
-0.01267143 0.29313239 0.88700002 1.3451917e-38
-0.010981905 0.29313239 0.88700002 1.2899825e-38
-0.0093133338 0.29379335 0.88900006 1.2804757e-38
-0.0076371431 0.29445431 0.89100003 1.2712567e-38
-0.0059733335 0.2961067 0.89600003 1.2620736e-38
-0.0042761909 0.29676765 0.89800006 1.2620736e-38
-0.0025800001 0.29842001 0.90300006 1.2531051e-38
-0.00086476194 0.3000724 0.90800005 1.2439933e-38
0.00086476194 0.3000724 0.90800005 1.2532486e-38
0.0026000002 0.30073336 0.91000003 1.2531386e-38
0.0043333336 0.30073336 0.91000003 1.0042118e-38
0.0061133336 0.30304667 0.91700006 7.4678572e-39
0.0078600002 0.30304667 0.91700006 7.8362768e-39
-0.061533336 0.30246669 0.91000003 7.190508e-39
-0.059668574 0.30180192 0.90800005 4.1491607e-39
-0.057939053 0.30180192 0.90800005 5.6160049e-39
-0.056333337 0.30246669 0.91000003 6.9957205e-39
-0.054480005 0.30180192 0.90800005 7.0915343e-39
-0.052750479 0.30180192 0.90800005 7.1887508e-39
-0.050740004 0.30014002 0.90300006 9.1241135e-39
-0.04891143 0.29947525 0.90100002 1.096334e-38
-0.047038097 0.29847813 0.89800006 9.6826725e-39
-0.045125715 0.29714859 0.89400005 8.3905324e-39
-0.043422859 0.29714859 0.89400005 9.7702326e-39
-0.041580003 0.29615146 0.89100003 1.1147394e-38
-0.039882861 0.29615146 0.89100003 1.022544e-38
-0.038185716 0.29615146 0.89100003 9.2166945e-39
-0.03640667 0.29548669 0.88900006 8.5799543e-39
-0.034713335 0.29548669 0.88900006 7.9295669e-39
-0.033020001 0.29548669 0.88900006 7.6526198e-39
-0.031256191 0.29482192 0.88700002 7.2842017e-39
-0.029566668 0.29482192 0.88700002 5.3448957e-39
-0.027877145 0.29482192 0.88700002 3.3327572e-39
-0.026187621 0.29482192 0.88700002 4.6094774e-39
-0.02441524 0.29382479 0.88400006 5.8180539e-39
-0.022731431 0.29382479 0.88400006 8.8550895e-39
-0.021119049 0.29482192 0.88700002 1.1892503e-38
-0.019429525 0.29482192 0.88700002 1.3184327e-38
-0.017680001 0.29382479 0.88400006 1.43789e-38
-0.015996192 0.29382479 0.88400006 1.4378537e-38
-0.014312382 0.29382479 0.88400006 1.4283465e-38
-0.01267143 0.29482192 0.88700002 1.3637022e-38
-0.010981905 0.29482192 0.88700002 1.2896951e-38
-0.0093133338 0.29548669 0.88900006 1.2801166e-38
-0.0076628574 0.29714859 0.89400005 1.2619654e-38
-0.0059733335 0.29781336 0.89600003 1.262002e-38
-0.0042904764 0.29947525 0.90100002 1.2529625e-38
-0.0025857145 0.30080479 0.90500003 1.2531064e-38
-0.00086666673 0.30246669 0.91000003 1.2439943e-38
0.00086666673 0.30246669 0.91000003 1.2532852e-38
0.0026000002 0.30246669 0.91000003 1.2529238e-38
0.0043476191 0.30346382 0.91300005 1.0038891e-38
0.0061133336 0.30479336 0.91700006 7.4682132e-39
-0.061533336 0.30420002 0.91000003 8.9435997e-39
-0.059800003 0.30420002 0.91000003 7.5538689e-39
-0.057939053 0.30353144 0.90800005 5.5227246e-39
-0.056209527 0.30353144 0.90800005 3.5934688e-39
-0.054480005 0.30353144 0.90800005 4.6050998e-39
-0.052750479 0.30353144 0.90800005 5.6135246e-39
-0.050740004 0.30186003 0.90300006 5.8083443e-39
-0.04891143 0.30119145 0.90100002 5.9091579e-39
-0.047038097 0.3001886 0.89800006 6.9146947e-39
-0.045226671 0.29952002 0.89600003 8.0174619e-39
-0.043422859 0.29885146 0.89400005 8.9412217e-39
-0.041580003 0.29784858 0.89100003 9.8652841e-39
-0.039882861 0.29784858 0.89100003 9.7701878e-39
-0.038185716 0.29784858 0.89100003 9.6816145e-39
-0.036488574 0.29784858 0.89100003 9.2231881e-39
-0.034713335 0.29718003 0.88900006 8.7575409e-39
-0.033020001 0.29718003 0.88900006 8.9415566e-39
-0.03132667 0.29718003 0.88900006 9.2199287e-39
-0.029566668 0.29651144 0.88700002 7.469309e-39
-0.027877145 0.29651144 0.88700002 5.8187644e-39
-0.026187621 0.29651144 0.88700002 6.365097e-39
-0.024498098 0.29651144 0.88700002 6.9092913e-39
-0.022808572 0.29651144 0.88700002 6.5444576e-39
-0.021119049 0.29651144 0.88700002 6.0964527e-39
-0.019429525 0.29651144 0.88700002 9.6881334e-39
-0.017740002 0.29651144 0.88700002 1.3277606e-38
-0.015996192 0.29550859 0.88400006 1.3644226e-38
-0.014312382 0.29550859 0.88400006 1.4009041e-38
-0.01267143 0.29651144 0.88700002 1.3359001e-38
-0.011006667 0.29718003 0.88900006 1.2708973e-38
-0.0093342867 0.29784858 0.89100003 1.2710042e-38
-0.0076628574 0.29885146 0.89400005 1.2619653e-38
-0.0059866672 0.3001886 0.89800006 1.2528903e-38
-0.0042904764 0.30119145 0.90100002 1.2438155e-38
-0.0025800001 0.30186003 0.90300006 1.2438524e-38
-0.00086476194 0.30353144 0.90800005 1.2439235e-38
0.00086476194 0.30353144 0.90800005 1.2441022e-38
0.0026000002 0.30420002 0.91000003 1.2442429e-38
0.004366667 0.30654001 0.91700006 1.0043197e-38
0.0061133336 0.30654001 0.91700006 7.6515226e-39
-0.060128577 0.3076143 0.91500002 1.0866068e-38
-0.05806667 0.30593336 0.91000003 5.5105095e-39
-0.056333337 0.30593336 0.91000003 1.8944294e-40
-0.054600004 0.30593336 0.91000003 2.1212296e-39
-0.052866671 0.30593336 0.91000003 4.0533959e-39
-0.050852384 0.30425239 0.90500003 2.495096e-39
-0.04891143 0.30290765 0.90100002 8.4669676e-40
-0.047195241 0.30290765 0.90100002 4.2327495e-39
-0.045226671 0.30122668 0.89600003 7.5503377e-39
-0.043520004 0.30122668 0.89600003 8.1110686e-39
-0.041720003 0.30055431 0.89400005 8.5702363e-39
-0.040017147 0.30055431 0.89400005 9.3996158e-39
-0.038185716 0.29954574 0.89100003 1.0139712e-38
-0.036488574 0.29954574 0.89100003 9.8728455e-39
-0.034791432 0.29954574 0.89100003 9.4929437e-39
-0.033020001 0.29887336 0.88900006 1.031946e-38
-0.03132667 0.29887336 0.88900006 1.1057366e-38
-0.029566668 0.29820096 0.88700002 9.6765965e-39
-0.027877145 0.29820096 0.88700002 8.2065069e-39
-0.026187621 0.29820096 0.88700002 8.1225593e-39
-0.02441524 0.29719239 0.88400006 8.0138283e-39
-0.022731431 0.29719239 0.88400006 4.133745e-39
-0.021119049 0.29820096 0.88700002 2.9821873e-40
-0.019429525 0.29820096 0.88700002 6.2855046e-39
-0.017740002 0.29820096 0.88700002 1.2171604e-38
-0.015996192 0.29719239 0.88400006 1.2912046e-38
-0.014312382 0.29719239 0.88400006 1.3640263e-38
-0.01267143 0.29820096 0.88700002 1.3080631e-38
-0.011031429 0.29954574 0.89100003 1.2527101e-38
-0.0093657151 0.30055431 0.89400005 1.2618213e-38
-0.0076800007 0.30122668 0.89600003 1.2620008e-38
-0.0059866672 0.30189908 0.89800006 1.2529609e-38
-0.0042904764 0.30290765 0.90100002 1.2346308e-38
-0.002574286 0.30290765 0.90100002 1.2344883e-38
-0.00086476194 0.30526099 0.90800005 1.2346674e-38
0.00086666673 0.30593336 0.91000003 1.2349182e-38
0.0026085717 0.30694193 0.91300005 1.2345567e-38
0.0043571433 0.3076143 0.91500002 1.0039248e-38
0.0061000003 0.3076143 0.91500002 7.744077e-39
-0.060128577 0.30935717 0.91500002 1.2622803e-38
-0.05806667 0.30766669 0.91000003 7.9179431e-39
-0.056333337 0.30766669 0.91000003 3.3071737e-39
-0.054600004 0.30766669 0.91000003 3.220736e-39
-0.052866671 0.30766669 0.91000003 3.1371906e-39
-0.051020958 0.3069905 0.90800005 4.4290252e-39
-0.049020004 0.30530003 0.90300006 5.6264179e-39
-0.047195241 0.30462384 0.90100002 7.4591257e-39
-0.045327622 0.30360955 0.89800006 9.2894191e-39
-0.043520004 0.30293337 0.89600003 7.9173069e-39
-0.04190667 0.30360955 0.89800006 6.4450817e-39
-0.040017147 0.30225715 0.89400005 6.7249042e-39
-0.038314287 0.30225715 0.89400005 7.1048298e-39
-0.036488574 0.30124289 0.89100003 6.8236117e-39
-0.034791432 0.30124289 0.89100003 6.6345667e-39
-0.033094287 0.30124289 0.89100003 7.9274453e-39
-0.031397145 0.30124289 0.89100003 9.2281992e-39
-0.029633336 0.30056667 0.88900006 8.4816658e-39
-0.027940001 0.30056667 0.88900006 7.8302162e-39
-0.026246669 0.30056667 0.88900006 7.7469987e-39
-0.024553334 0.30056667 0.88900006 7.6554561e-39
-0.022808572 0.29989049 0.88700002 4.052998e-39
-0.021166667 0.30056667 0.88900006 3.8032782e-40
-0.019473335 0.30056667 0.88900006 6.4630253e-39
-0.01778 0.30056667 0.88900006 1.2537123e-38
-0.016050477 0.29989049 0.88700002 1.2907733e-38
-0.014360953 0.29989049 0.88700002 1.3273278e-38
-0.01267143 0.29989049 0.88700002 1.2990234e-38
-0.011031429 0.30124289 0.89100003 1.2618583e-38
-0.0093657151 0.30225715 0.89400005 1.2619654e-38
-0.0076800007 0.30293337 0.89600003 1.2620364e-38
-0.0059866672 0.30360955 0.89800006 1.2437763e-38
-0.0042904764 0.30462384 0.90100002 1.2348091e-38
-0.0025800001 0.30530003 0.90300006 1.2438142e-38
-0.00086666673 0.30766669 0.91000003 1.2528544e-38
0.00086952385 0.30868098 0.91300005 1.2346667e-38
0.0026142858 0.30935717 0.91500002 1.225588e-38
0.004366667 0.31003335 0.91700006 9.9509959e-39
0.0061133336 0.31003335 0.91700006 7.7444371e-39
-0.060260005 0.31178001 0.91700006 1.4372376e-38
-0.058258098 0.31042001 0.91300005 1.0414798e-38
-0.056333337 0.30940002 0.91000003 6.3560698e-39
-0.054600004 0.30940002 0.91000003 4.3166467e-39
-0.052866671 0.30940002 0.91000003 2.2159391e-39
-0.051020958 0.30872002 0.90800005 6.365069e-39
-0.049128573 0.30770001 0.90500003 1.0406913e-38
-0.047300003 0.30702001 0.90300006 1.0780359e-38
-0.045580003 0.30702001 0.90300006 1.1042954e-38
-0.043617144 0.30532002 0.89800006 7.7311388e-39
-0.04190667 0.30532002 0.89800006 4.3317835e-39
-0.040106669 0.30464002 0.89600003 4.1337562e-39
-0.038400002 0.30464002 0.89600003 3.9619262e-39
-0.03661143 0.30396003 0.89400005 3.86543e-39
-0.034908574 0.30396003 0.89400005 3.7807719e-39
-0.033094287 0.30294001 0.89100003 5.6192797e-39
-0.031397145 0.30294001 0.89100003 7.3734826e-39
-0.029633336 0.30226001 0.88900006 7.3749203e-39
-0.027940001 0.30226001 0.88900006 7.3731337e-39
-0.026246669 0.30226001 0.88900006 7.3788804e-39
-0.024553334 0.30226001 0.88900006 7.2765954e-39
-0.022860002 0.30226001 0.88900006 3.8585468e-39
-0.021166667 0.30226001 0.88900006 4.7647091e-40
-0.019473335 0.30226001 0.88900006 6.7407108e-39
-0.01778 0.30226001 0.88900006 1.2904834e-38
-0.016050477 0.30158001 0.88700002 1.2907729e-38
-0.014360953 0.30158001 0.88700002 1.2903423e-38
-0.012700001 0.30226001 0.88900006 1.2804768e-38
-0.011068572 0.30396003 0.89400005 1.2712208e-38
-0.0093866671 0.30464002 0.89600003 1.2621083e-38
-0.0076971436 0.30532002 0.89800006 1.2528521e-38
-0.0060066669 0.30634001 0.90100002 1.2437034e-38
-0.0042904764 0.30634001 0.90100002 1.2253733e-38
-0.0025857145 0.30770001 0.90500003 1.2530684e-38
-0.00086666673 0.30940002 0.91000003 1.2713273e-38
0.00087142864 0.31110001 0.91500002 1.2437045e-38
0.0026200002 0.31178001 0.91700006 1.2067895e-38
0.004366667 0.31178001 0.91700006 9.9484918e-39
0.0061133336 0.31178001 0.91700006 7.7444399e-39
-0.058385719 0.31284288 0.91500002 1.2166206e-38
-0.05651905 0.31215906 0.91300005 1.0048532e-38
-0.054780003 0.31215906 0.91300005 6.7233642e-39
-0.052866671 0.31113335 0.91000003 3.3104051e-39
-0.051133338 0.31113335 0.91000003 4.5154082e-39
-0.049128573 0.30942383 0.90500003 5.8148057e-39
-0.047404766 0.30942383 0.90500003 7.9227846e-39
-0.045580003 0.30874002 0.90300006 1.0125725e-38
-0.043762859 0.30805621 0.90100002 8.9336224e-39
-0.04204667 0.30805621 0.90100002 7.7415294e-39
-0.040196192 0.3070305 0.89800006 6.4457627e-39
-0.038485717 0.3070305 0.89800006 5.1517925e-39
-0.036693335 0.30634668 0.89600003 4.6951038e-39
-0.034986667 0.30634668 0.89600003 4.3295554e-39
-0.033280004 0.30634668 0.89600003 4.6090066e-39
-0.031502858 0.30566287 0.89400005 4.9756465e-39
-0.029700002 0.30463716 0.89100003 4.3328135e-39
-0.028002858 0.30463716 0.89100003 3.7864696e-39
-0.026305716 0.30463716 0.89100003 3.6921286e-39
-0.024553334 0.30395335 0.88900006 3.6931782e-39
-0.022860002 0.30395335 0.88900006 4.0547538e-39
-0.021166667 0.30395335 0.88900006 4.5183131e-39
-0.019473335 0.30395335 0.88900006 8.9483753e-39
-0.017820001 0.30463716 0.89100003 1.3464109e-38
-0.016086668 0.30395335 0.88900006 1.3459096e-38
-0.014393334 0.30395335 0.88900006 1.3454791e-38
-0.012728572 0.30463716 0.89100003 1.3083861e-38
-0.011068572 0.30566287 0.89400005 1.28044e-38
-0.0093866671 0.30634668 0.89600003 1.2618925e-38
-0.0076971436 0.3070305 0.89800006 1.2435242e-38
-0.0059866672 0.3070305 0.89800006 1.2343394e-38
-0.0042904764 0.30805621 0.90100002 1.2250134e-38
-0.0025857145 0.30942383 0.90500003 1.2345567e-38
-0.00086666673 0.31113335 0.91000003 1.243775e-38
0.00087142864 0.31284288 0.91500002 1.2160439e-38
0.0026200002 0.31352669 0.91700006 1.197641e-38
0.0043809526 0.3145524 0.92000002 9.8577381e-39
0.0061333338 0.3145524 0.92000002 7.835202e-39
-0.058258098 0.31389812 0.91300005 1.3916427e-38
-0.05651905 0.31389812 0.91300005 1.3726276e-38
-0.054780003 0.31389812 0.91300005 9.1258694e-39
-0.052866671 0.31286669 0.91000003 4.4275244e-39
-0.051133338 0.31286669 0.91000003 2.755446e-39
-0.049291432 0.31217906 0.90800005 1.1125077e-39
-0.047561906 0.31217906 0.90800005 5.1536829e-39
-0.045680955 0.31114763 0.90500003 9.1108348e-39
-0.043860003 0.31046003 0.90300006 1.0136067e-38
-0.042140003 0.31046003 0.90300006 1.1050092e-38
-0.040330477 0.3097724 0.90100002 8.6637786e-39
-0.038485717 0.30874097 0.89800006 6.2620581e-39
-0.036775239 0.30874097 0.89800006 5.5252147e-39
-0.034986667 0.30805334 0.89600003 4.7923286e-39
-0.033280004 0.30805334 0.89600003 3.694969e-39
-0.031573337 0.30805334 0.89600003 2.5814622e-39
-0.029866669 0.30805334 0.89600003 1.3782737e-39
-0.028097145 0.30736575 0.89400005 9.7966177e-41
-0.026305716 0.30633432 0.89100003 9.2953732e-41
-0.024608573 0.30633432 0.89100003 1.0408845e-40
-0.022911429 0.30633432 0.89100003 4.3328387e-39
-0.021214288 0.30633432 0.89100003 8.4837762e-39
-0.019517144 0.30633432 0.89100003 1.1253594e-38
-0.017820001 0.30633432 0.89100003 1.4010461e-38
-0.016086668 0.30564669 0.88900006 1.4009034e-38
-0.014425715 0.30633432 0.89100003 1.3915037e-38
-0.012771429 0.30736575 0.89400005 1.3362579e-38
-0.011093334 0.30805334 0.89600003 1.2805828e-38
-0.0093866671 0.30805334 0.89600003 1.2523508e-38
-0.0076971436 0.30874097 0.89800006 1.224979e-38
-0.0059866672 0.30874097 0.89800006 1.225086e-38
-0.0042904764 0.3097724 0.90100002 1.2253017e-38
-0.0025857145 0.31114763 0.90500003 1.2163697e-38
-0.00087142864 0.31458575 0.91500002 1.20704e-38
0.00087142864 0.31458575 0.91500002 1.1973515e-38
0.0026200002 0.31527334 0.91700006 1.1880975e-38
0.004366667 0.31527334 0.91700006 9.8541494e-39
0.0061133336 0.31527334 0.91700006 7.8355607e-39
-0.058513336 0.31702003 0.91700006 1.308736e-38
-0.05664286 0.31632859 0.91500002 1.2721845e-38
-0.054900005 0.31632859 0.91500002 1.0786157e-38
-0.053040955 0.31563717 0.91300005 8.7628322e-39
-0.051301908 0.31563717 0.91300005 7.3665714e-39
-0.049400002 0.31460002 0.91000003 5.9711458e-39
-0.047666669 0.31460002 0.91000003 6.1595223e-39
-0.045832384 0.31390861 0.90800005 6.3442541e-39
-0.044102859 0.31390861 0.90800005 6.078418e-39
-0.042140003 0.31218001 0.90300006 5.7203778e-39
-0.040420003 0.31218001 0.90300006 4.426046e-39
-0.038614288 0.3114886 0.90100002 3.2275295e-39
-0.036898099 0.3114886 0.90100002 2.8584022e-39
-0.035064764 0.31045145 0.89800006 2.4964496e-39
-0.033354286 0.31045145 0.89800006 1.9386278e-39
-0.031643812 0.31045145 0.89800006 1.4701064e-39
-0.029933335 0.31045145 0.89800006 8.2723973e-40
-0.028222859 0.31045145 0.89800006 1.8440527e-40
-0.026453335 0.30976003 0.89600003 2.4892736e-39
-0.024746668 0.30976003 0.89600003 4.8792021e-39
-0.023040002 0.30976003 0.89600003 8.0224687e-39
-0.021285716 0.30906859 0.89400005 1.116749e-38
-0.019582858 0.30906859 0.89400005 1.2357059e-38
-0.01792 0.30976003 0.89600003 1.3549134e-38
-0.016122859 0.30803144 0.89100003 1.3548782e-38
-0.014474287 0.30906859 0.89400005 1.3547686e-38
-0.012800001 0.30976003 0.89600003 1.3083108e-38
-0.011093334 0.30976003 0.89600003 1.2623945e-38
-0.0094076199 0.31045145 0.89800006 1.2526742e-38
-0.0077228579 0.3114886 0.90100002 1.2432756e-38
-0.0060066669 0.3114886 0.90100002 1.2436702e-38
-0.0043095243 0.31287146 0.90500003 1.2438494e-38
-0.0026000002 0.31460002 0.91000003 1.2347733e-38
-0.00087142864 0.31632859 0.91500002 1.2165097e-38
0.00087142864 0.31632859 0.91500002 1.1976001e-38
0.0026200002 0.31702003 0.91700006 1.1882396e-38
0.0043904763 0.31874859 0.92200005 9.8570165e-39
0.0061466671 0.31874859 0.92200005 7.8362782e-39
-0.060457148 0.31980956 0.92000002 1.2904436e-38
-0.058513336 0.31876668 0.91700006 1.23448e-38
-0.05676667 0.31876668 0.91700006 1.1703407e-38
-0.055020005 0.31876668 0.91700006 1.2441697e-38
-0.053157147 0.31807145 0.91500002 1.3081282e-38
-0.051301908 0.31737623 0.91300005 1.1977069e-38
-0.049400002 0.31633335 0.91000003 1.0767769e-38
-0.047666669 0.31633335 0.91000003 7.1682358e-39
-0.045832384 0.31563812 0.90800005 3.5927513e-39
-0.044102859 0.31563812 0.90800005 2.0207887e-39
-0.042233337 0.31459525 0.90500003 3.7490199e-40
-0.040420003 0.31390002 0.90300006 2.7586942e-40
-0.038700003 0.31390002 0.90300006 9.5435432e-41
-0.036898099 0.3132048 0.90100002 9.2215248e-41
-0.035181906 0.3132048 0.90100002 9.7251515e-41
-0.033465717 0.3132048 0.90100002 1.8407877e-40
-0.031749524 0.3132048 0.90100002 2.8127143e-40
-0.029933335 0.31216192 0.89800006 2.7622676e-40
-0.028222859 0.31216192 0.89800006 2.0091537e-40
-0.026512383 0.31216192 0.89800006 4.8928003e-39
-0.024801906 0.31216192 0.89800006 9.5843546e-39
-0.023040002 0.31146669 0.89600003 1.1709896e-38
-0.021333335 0.31146669 0.89600003 1.3733148e-38
-0.019626668 0.31146669 0.89600003 1.3457642e-38
-0.017960001 0.31216192 0.89800006 1.3089588e-38
-0.016177144 0.31077144 0.89400005 1.3180711e-38
-0.014506668 0.31146669 0.89600003 1.3176398e-38
-0.012800001 0.31146669 0.89600003 1.2798287e-38
-0.011093334 0.31146669 0.89600003 1.2341271e-38
-0.0094076199 0.31216192 0.89800006 1.2434192e-38
-0.0077228579 0.3132048 0.90100002 1.2529611e-38
-0.0060333339 0.31459525 0.90500003 1.2625029e-38
-0.0043333336 0.31633335 0.91000003 1.2623586e-38
-0.0026142858 0.31807145 0.91500002 1.2439908e-38
-0.00087333337 0.31876668 0.91700006 1.2253334e-38
0.00087333337 0.31876668 0.91700006 1.20664e-38
0.0026285716 0.31980956 0.92000002 1.178912e-38
0.0044047623 0.32154763 0.92500007 9.855213e-39
0.0061666672 0.32154763 0.92500007 7.8359125e-39
-0.060457148 0.32156193 0.92000002 1.2352346e-38
-0.058513336 0.32051337 0.91700006 1.1701251e-38
-0.05676667 0.32051337 0.91700006 1.0957605e-38
-0.055020005 0.32051337 0.91700006 1.0966579e-38
-0.053157147 0.31981429 0.91500002 1.0877619e-38
-0.051414289 0.31981429 0.91500002 1.1153847e-38
-0.04956286 0.31911525 0.91300005 1.1433589e-38
-0.047666669 0.31806669 0.91000003 9.8586854e-39
-0.045933336 0.31806669 0.91000003 8.3889784e-39
-0.044200003 0.31806669 0.91000003 7.0911041e-39
-0.042233337 0.31631908 0.90500003 5.7888859e-39
-0.040509526 0.31631908 0.90500003 5.518382e-39
-0.038700003 0.31562003 0.90300006 5.2353506e-39
-0.036898099 0.31492096 0.90100002 5.4272808e-39
-0.035181906 0.31492096 0.90100002 5.5133976e-39
-0.033465717 0.31492096 0.90100002 5.8947512e-39
-0.031749524 0.31492096 0.90100002 6.1738156e-39
-0.030033335 0.31492096 0.90100002 6.3639143e-39
-0.028222859 0.3138724 0.89800006 6.4704915e-39
-0.026512383 0.3138724 0.89800006 8.8568117e-39
-0.024801906 0.3138724 0.89800006 1.1252837e-38
-0.02309143 0.3138724 0.89800006 1.2261643e-38
-0.021380953 0.3138724 0.89800006 1.3271464e-38
-0.019670477 0.3138724 0.89800006 1.3180692e-38
-0.017960001 0.3138724 0.89800006 1.3180337e-38
-0.016213335 0.31317335 0.89600003 1.3179983e-38
-0.014506668 0.31317335 0.89600003 1.3270029e-38
-0.012800001 0.31317335 0.89600003 1.2895156e-38
-0.011118096 0.3138724 0.89800006 1.2519209e-38
-0.0094076199 0.3138724 0.89800006 1.2528181e-38
-0.0077228579 0.31492096 0.90100002 1.2625748e-38
-0.0060533336 0.31736764 0.90800005 1.2532828e-38
-0.0043476191 0.31911525 0.91300005 1.2532097e-38
-0.0026200002 0.32051337 0.91700006 1.2252987e-38
-0.00087619055 0.32156193 0.92000002 1.2065705e-38
0.00087333337 0.32051337 0.91700006 1.1974205e-38
0.0026428574 0.32330954 0.92500007 1.1790549e-38
0.0044047623 0.32330954 0.92500007 9.8573556e-39
0.0061666672 0.32330954 0.92500007 7.8359069e-39
-0.060457148 0.32331431 0.92000002 1.1795576e-38
-0.058513336 0.32226002 0.91700006 1.1058032e-38
-0.05676667 0.32226002 0.91700006 1.0229725e-38
-0.055020005 0.32226002 0.91700006 9.4968421e-39
-0.053157147 0.32155716 0.91500002 8.6710443e-39
-0.051414289 0.32155716 0.91500002 1.0326599e-38
-0.04956286 0.32085431 0.91300005 1.1982481e-38
-0.047823813 0.32085431 0.91300005 1.2627098e-38
-0.045933336 0.31980002 0.91000003 1.3173806e-38
-0.044200003 0.31980002 0.91000003 1.2257963e-38
-0.042373337 0.31909716 0.90800005 1.123377e-38
-0.040509526 0.31804287 0.90500003 1.0864623e-38
-0.038785718 0.31804287 0.90500003 1.0404725e-38
-0.036980003 0.31734002 0.90300006 1.0683818e-38
-0.035181906 0.31663716 0.90100002 1.0960783e-38
-0.033465717 0.31663716 0.90100002 1.1524018e-38
-0.031749524 0.31663716 0.90100002 1.2069637e-38
-0.030033335 0.31663716 0.90100002 1.2443424e-38
-0.028317144 0.31663716 0.90100002 1.2718231e-38
-0.026512383 0.31558287 0.89800006 1.2811161e-38
-0.024801906 0.31558287 0.89800006 1.2904095e-38
-0.02309143 0.31558287 0.89800006 1.2904476e-38
-0.021380953 0.31558287 0.89800006 1.2812634e-38
-0.019670477 0.31558287 0.89800006 1.2996296e-38
-0.017960001 0.31558287 0.89800006 1.3180689e-38
-0.016213335 0.31488001 0.89600003 1.327253e-38
-0.014539049 0.31558287 0.89800006 1.3270748e-38
-0.012828573 0.31558287 0.89800006 1.2992741e-38
-0.011118096 0.31558287 0.89800006 1.2713646e-38
-0.0094390484 0.31663716 0.90100002 1.2717233e-38
-0.0077228579 0.31663716 0.90100002 1.2625029e-38
-0.0060533336 0.31909716 0.90800005 1.2532468e-38
-0.0043476191 0.32085431 0.91300005 1.2345177e-38
-0.0026200002 0.32226002 0.91700006 1.2157888e-38
-0.00087619055 0.32331431 0.92000002 1.1882012e-38
0.00087809528 0.32401717 0.92200005 1.1882001e-38
0.0026428574 0.32507145 0.92500007 1.1789472e-38
0.0044047623 0.32507145 0.92500007 9.8552116e-39
-0.058704767 0.32506669 0.92000002 1.1701942e-38
-0.056952383 0.32506669 0.92000002 1.0783597e-38
-0.055020005 0.32400668 0.91700006 1.0231516e-38
-0.053273335 0.32400668 0.91700006 9.6772775e-39
-0.051526669 0.32400668 0.91700006 1.0507746e-38
-0.04967143 0.32330003 0.91500002 1.1337869e-38
-0.047823813 0.32259336 0.91300005 1.1337528e-38
-0.046084765 0.32259336 0.91300005 1.1339663e-38
-0.044200003 0.32153335 0.91000003 1.1152745e-38
-0.042373337 0.32082668 0.90800005 1.0880463e-38
-0.040509526 0.3197667 0.90500003 1.0784317e-38
-0.038785718 0.3197667 0.90500003 1.0794349e-38
-0.036980003 0.31906003 0.90300006 1.097155e-38
-0.035260003 0.31906003 0.90300006 1.1254977e-38
-0.033465717 0.31835335 0.90100002 1.1802072e-38
-0.031749524 0.31835335 0.90100002 1.2352014e-38
-0.030033335 0.31835335 0.90100002 1.2535331e-38
-0.028317144 0.31835335 0.90100002 1.2718646e-38
-0.026512383 0.31729335 0.89800006 1.2719366e-38
-0.024884764 0.31835335 0.90100002 1.2811196e-38
-0.02309143 0.31729335 0.89800006 1.2812267e-38
-0.021380953 0.31729335 0.89800006 1.2904458e-38
-0.019670477 0.31729335 0.89800006 1.3180678e-38
-0.017960001 0.31729335 0.89800006 1.3456907e-38
-0.016249524 0.31729335 0.89800006 1.3364359e-38
-0.014539049 0.31729335 0.89800006 1.317999e-38
-0.012828573 0.31729335 0.89800006 1.290199e-38
-0.011118096 0.31729335 0.89800006 1.271688e-38
-0.0094390484 0.31835335 0.90100002 1.2532845e-38
-0.0077228579 0.31835335 0.90100002 1.2440641e-38
-0.0060666669 0.32153335 0.91000003 1.225373e-38
-0.0043571433 0.32330003 0.91500002 1.2158618e-38
-0.0026200002 0.32400668 0.91700006 1.2066018e-38
-0.00087619055 0.32506669 0.92000002 1.1973825e-38
-0.058704767 0.32681906 0.92000002 1.2345877e-38
-0.056952383 0.32681906 0.92000002 1.1243845e-38
-0.055200003 0.32681906 0.92000002 1.0967617e-38
-0.053273335 0.32575336 0.91700006 1.0689965e-38
-0.051526669 0.32575336 0.91700006 1.0689613e-38
-0.049780004 0.32575336 0.91700006 1.0598867e-38
-0.047928575 0.32504287 0.91500002 1.0045355e-38
-0.046084765 0.32433242 0.91300005 9.4950302e-39
-0.044200003 0.32326669 0.91000003 1.0040993e-38
-0.042373337 0.3225562 0.90800005 1.0505568e-38
-0.040509526 0.3214905 0.90500003 1.0781809e-38
-0.038785718 0.3214905 0.90500003 1.10609e-38
-0.036980003 0.32078001 0.90300006 1.1337121e-38
-0.035260003 0.32078001 0.90300006 1.1525107e-38
-0.033540003 0.32078001 0.90300006 1.2077566e-38
-0.031749524 0.32006955 0.90100002 1.2535315e-38
-0.030033335 0.32006955 0.90100002 1.2626801e-38
-0.028317144 0.32006955 0.90100002 1.2627162e-38
-0.026600955 0.32006955 0.90100002 1.2719719e-38
-0.024884764 0.32006955 0.90100002 1.2719716e-38
-0.023168573 0.32006955 0.90100002 1.2811908e-38
